1.612824320793151855e+00 1.348363310098648071e-01 7.359123229980468750e-01
1.420130252838134766e+00 3.271693587303161621e-01 6.289849281311035156e-01
1.468458533287048340e+00 2.862767577171325684e-01 6.794494390487670898e-01
1.049467325210571289e+00 2.885569632053375244e-01 4.456800222396850586e-01
1.466618299484252930e+00 3.151404261589050293e-01 6.385143399238586426e-01
1.061730384826660156e+00 -2.969546914100646973e-01 4.640580117702484131e-01
1.304377913475036621e+00 2.606756389141082764e-01 6.263336539268493652e-01
1.498710155487060547e+00 -5.187732577323913574e-01 4.928756058216094971e-01
1.143078565597534180e+00 -5.616402626037597656e-02 4.485182464122772217e-01
1.636830329895019531e+00 1.371297389268875122e-01 7.303556203842163086e-01
1.152888417243957520e+00 -1.476907879114151001e-01 4.294604659080505371e-01
1.150423884391784668e+00 2.010462246835231781e-02 4.808875322341918945e-01
1.160121798515319824e+00 3.440675139427185059e-01 4.667383134365081787e-01
1.315817356109619141e+00 -5.508039593696594238e-01 4.938886165618896484e-01
1.449150085449218750e+00 3.381266295909881592e-01 4.493627250194549561e-01
1.143957495689392090e+00 2.671968042850494385e-01 4.867050349712371826e-01
1.227559566497802734e+00 -3.088651597499847412e-01 4.916573762893676758e-01
1.315657973289489746e+00 2.982076406478881836e-01 6.215639114379882812e-01
1.022147059440612793e+00 -2.390363067388534546e-01 4.788124561309814453e-01
1.688084959983825684e+00 3.275980241596698761e-03 6.901432871818542480e-01
1.589040160179138184e+00 2.492813318967819214e-01 6.813424229621887207e-01
1.657394886016845703e+00 4.367626272141933441e-03 7.298586964607238770e-01
1.126563310623168945e+00 -1.719236746430397034e-02 5.064365863800048828e-01
1.302556872367858887e+00 3.085627257823944092e-01 5.614457130432128906e-01
1.489254832267761230e+00 3.102642595767974854e-01 4.736980795860290527e-01
1.334026813507080078e+00 3.669059276580810547e-01 4.561732113361358643e-01
1.598566055297851562e+00 -3.710625767707824707e-01 5.222238302230834961e-01
1.411831259727478027e+00 3.277796804904937744e-01 4.856285750865936279e-01
1.137466073036193848e+00 -4.048778712749481201e-01 4.304818511009216309e-01
1.321931600570678711e+00 -5.413662195205688477e-01 4.894463717937469482e-01
1.544133305549621582e+00 2.845249176025390625e-01 4.482603371143341064e-01
1.644324183464050293e+00 -4.464957490563392639e-02 4.947834312915802002e-01
1.097903847694396973e+00 3.061500787734985352e-01 4.770812392234802246e-01
1.117471575736999512e+00 2.449616044759750366e-01 4.820833802223205566e-01
1.387094140052795410e+00 -3.182729184627532959e-01 4.856589734554290771e-01
1.328323245048522949e+00 3.690888583660125732e-01 4.372275173664093018e-01
1.491328477859497070e+00 2.509382665157318115e-01 4.927473068237304688e-01
1.217555284500122070e+00 2.576980590820312500e-01 5.881568789482116699e-01
1.518358349800109863e+00 -5.171001553535461426e-01 4.977346956729888916e-01
1.611458301544189453e+00 -1.074699684977531433e-01 4.946010410785675049e-01
1.541091799736022949e+00 2.862219512462615967e-01 6.546767950057983398e-01
1.535598874092102051e+00 2.871715426445007324e-01 4.277707636356353760e-01
1.233183383941650391e+00 3.640688955783843994e-01 4.655608236789703369e-01
9.500231742858886719e-01 -1.285858899354934692e-01 4.912964403629302979e-01
1.628319144248962402e+00 1.941717118024826050e-01 4.331610202789306641e-01
1.406122684478759766e+00 3.268865644931793213e-01 4.870435297489166260e-01
1.127773046493530273e+00 2.677139639854431152e-01 4.891904592514038086e-01
1.383479356765747070e+00 -3.098789453506469727e-01 4.765335023403167725e-01
1.613940596580505371e+00 2.114774286746978760e-01 6.484617590904235840e-01
1.647807359695434570e+00 1.656545251607894897e-01 7.123942375183105469e-01
1.164957284927368164e+00 -4.298770725727081299e-01 4.437634646892547607e-01
1.629040598869323730e+00 1.743975430727005005e-01 7.217535376548767090e-01
1.128926753997802734e+00 -4.285446703433990479e-01 4.872032999992370605e-01
1.327612519264221191e+00 3.145884573459625244e-01 4.924349188804626465e-01
1.428929567337036133e+00 2.638470232486724854e-01 4.843839704990386963e-01
1.208286523818969727e+00 3.341553509235382080e-01 4.889871776103973389e-01
9.298924803733825684e-01 -1.254139244556427002e-01 4.831438958644866943e-01
1.566664576530456543e+00 2.368425577878952026e-01 7.118138074874877930e-01
1.131867766380310059e+00 1.673437356948852539e-01 5.598174929618835449e-01
9.831792116165161133e-01 -1.240741163492202759e-01 4.859591424465179443e-01
1.668994426727294922e+00 8.678142726421356201e-02 4.736811518669128418e-01
1.494296669960021973e+00 3.100135624408721924e-01 4.712438881397247314e-01
1.381061077117919922e+00 3.607792258262634277e-01 4.483336806297302246e-01
1.593631386756896973e+00 1.899075806140899658e-01 7.256693840026855469e-01
1.356123208999633789e+00 3.584911227226257324e-01 4.701850116252899170e-01
9.977173209190368652e-01 -9.036283940076828003e-02 4.684471189975738525e-01
1.564316511154174805e+00 -4.703404307365417480e-01 5.042887926101684570e-01
1.655133247375488281e+00 1.200082451105117798e-01 4.748058021068572998e-01
1.444268703460693359e+00 2.897851169109344482e-01 6.729602217674255371e-01
1.160677909851074219e+00 -1.999045461416244507e-01 4.774630367755889893e-01
1.424902319908142090e+00 -5.450363159179687500e-01 4.901968240737915039e-01
1.010010957717895508e+00 -1.393134444952011108e-01 4.323599040508270264e-01
1.583237767219543457e+00 1.734023243188858032e-01 7.308385968208312988e-01
1.113830089569091797e+00 1.638647168874740601e-02 5.228049755096435547e-01
1.548686981201171875e+00 2.831591963768005371e-01 6.522108316421508789e-01
1.002393841743469238e+00 -6.441979855298995972e-02 4.424215853214263916e-01
1.141850829124450684e+00 -4.083588421344757080e-01 4.550295770168304443e-01
1.384639620780944824e+00 3.550998866558074951e-01 4.636646509170532227e-01
1.303003668785095215e+00 3.107997179031372070e-01 5.683572292327880859e-01
1.483431696891784668e+00 3.228628337383270264e-01 4.449109733104705811e-01
1.309926033020019531e+00 -3.703195154666900635e-01 4.902981221675872803e-01
1.501569390296936035e+00 2.601911127567291260e-01 4.938570261001586914e-01
9.919510483741760254e-01 -3.095535337924957275e-01 4.847637116909027100e-01
1.677269458770751953e+00 -1.674890965223312378e-01 5.692436695098876953e-01
1.615952491760253906e+00 1.329369544982910156e-01 7.365787029266357422e-01
1.069539904594421387e+00 -2.997196912765502930e-01 4.425329566001892090e-01
1.249641537666320801e+00 3.695823550224304199e-01 4.507972300052642822e-01
1.080141782760620117e+00 6.365727633237838745e-03 5.176596641540527344e-01
1.370021224021911621e+00 3.615655303001403809e-01 4.585728347301483154e-01
1.531169176101684570e+00 2.881298065185546875e-01 6.653196811676025391e-01
1.507920622825622559e+00 2.310515791177749634e-01 4.907172918319702148e-01
1.672371029853820801e+00 6.028385460376739502e-02 4.758257567882537842e-01
1.658754348754882812e+00 -1.028686854988336563e-02 4.906725287437438965e-01
1.436265707015991211e+00 3.254901766777038574e-01 6.113315820693969727e-01
1.230939626693725586e+00 -5.577424168586730957e-01 4.924195706844329834e-01
1.241317987442016602e+00 -3.502606749534606934e-01 4.898008704185485840e-01
1.076366186141967773e+00 -9.308095276355743408e-02 5.003483891487121582e-01
1.529298186302185059e+00 2.536874711513519287e-01 7.053599357604980469e-01
1.088766455650329590e+00 -4.274683892726898193e-01 4.928732812404632568e-01
1.029971957206726074e+00 -2.231798470020294189e-01 4.605151414871215820e-01
1.688645839691162109e+00 -5.891515314579010010e-02 6.667849421501159668e-01
1.037879467010498047e+00 -3.010144233703613281e-01 4.865035414695739746e-01
1.483314871788024902e+00 -4.958793222904205322e-01 4.380480647087097168e-01
9.415782094001770020e-01 2.996463514864444733e-02 4.886845350265502930e-01
1.175915241241455078e+00 -2.512599229812622070e-01 4.887498021125793457e-01
9.849903583526611328e-01 9.727103263139724731e-02 4.925455749034881592e-01
1.395512580871582031e+00 3.447322547435760498e-01 4.750234782695770264e-01
1.481932878494262695e+00 -5.095502734184265137e-01 4.774371087551116943e-01
1.583588361740112305e+00 2.452227473258972168e-01 6.960321068763732910e-01
1.570416212081909180e+00 2.688209414482116699e-01 6.565216779708862305e-01
1.118921518325805664e+00 3.249606788158416748e-01 4.657801389694213867e-01
9.537473917007446289e-01 -8.415231481194496155e-03 4.931321442127227783e-01
1.580817222595214844e+00 -4.247938692569732666e-01 5.076345801353454590e-01
9.896342754364013672e-01 3.145263716578483582e-02 4.845215380191802979e-01
1.688791632652282715e+00 2.656938321888446808e-02 6.829686760902404785e-01
1.446976661682128906e+00 3.390529155731201172e-01 4.374477863311767578e-01
1.012844681739807129e+00 -1.519118398427963257e-01 4.334596395492553711e-01
1.589773297309875488e+00 2.046618014574050903e-01 7.217336297035217285e-01
9.546337127685546875e-01 -1.726932376623153687e-01 4.901016950607299805e-01
9.804037213325500488e-01 1.594771742820739746e-01 4.877997934818267822e-01
1.570687651634216309e+00 2.512731254100799561e-01 4.715009927749633789e-01
1.665001630783081055e+00 1.030656993389129639e-01 4.703630805015563965e-01
1.198630928993225098e+00 -4.570448994636535645e-01 4.469000995159149170e-01
1.499637961387634277e+00 2.410394102334976196e-01 4.917681813240051270e-01
1.619855523109436035e+00 2.118721008300781250e-01 6.623356938362121582e-01
1.598457217216491699e+00 2.012340575456619263e-01 4.847624003887176514e-01
1.047694802284240723e+00 2.196674197912216187e-01 4.924778640270233154e-01
1.153719782829284668e+00 3.224129602313041687e-02 4.775589704513549805e-01
1.491746783256530762e+00 2.885741889476776123e-01 4.890115261077880859e-01
1.093628406524658203e+00 2.663004100322723389e-01 4.919887483119964600e-01
1.211533665657043457e+00 3.511243760585784912e-01 4.785349071025848389e-01
9.950811862945556641e-01 -1.013565957546234131e-01 4.734851121902465820e-01
1.228968858718872070e+00 -4.835281372070312500e-01 4.667389392852783203e-01
9.763771295547485352e-01 2.031482756137847900e-01 4.626164734363555908e-01
1.004119396209716797e+00 5.779333040118217468e-02 4.763202667236328125e-01
1.631449460983276367e+00 1.431934386491775513e-01 7.307303547859191895e-01
1.171956658363342285e+00 -2.094613611698150635e-01 4.133074879646301270e-01
1.453350305557250977e+00 2.965933680534362793e-01 4.920121729373931885e-01
1.488068461418151855e+00 3.110947012901306152e-01 6.331487894058227539e-01
1.005095601081848145e+00 1.551303565502166748e-01 4.926848709583282471e-01
1.083440184593200684e+00 -3.244261741638183594e-01 4.372768998146057129e-01
1.470264077186584473e+00 3.140446841716766357e-01 6.399894356727600098e-01
1.601520895957946777e+00 1.878198981285095215e-01 7.238938212394714355e-01
1.309294939041137695e+00 -5.182895660400390625e-01 4.348442852497100830e-01
1.008088231086730957e+00 -2.747066617012023926e-01 4.908005893230438232e-01
1.658259630203247070e+00 1.470715254545211792e-01 6.978005766868591309e-01
1.093794584274291992e+00 2.193431109189987183e-01 4.775714576244354248e-01
1.622488975524902344e+00 1.847338080406188965e-01 7.188807129859924316e-01
1.161636233329772949e+00 1.975426077842712402e-01 5.748878121376037598e-01
1.004573941230773926e+00 2.337880134582519531e-01 4.711536169052124023e-01
1.131867766380310059e+00 1.673437356948852539e-01 5.598174929618835449e-01
1.112760424613952637e+00 -3.736211061477661133e-01 4.517340362071990967e-01
1.215281963348388672e+00 2.708883285522460938e-01 5.616286993026733398e-01
1.333102345466613770e+00 -5.222745537757873535e-01 4.624780714511871338e-01
1.325908780097961426e+00 3.180347979068756104e-01 5.802218914031982422e-01
1.588420391082763672e+00 2.310468256473541260e-01 6.347154974937438965e-01
9.860510230064392090e-01 -8.763127028942108154e-02 4.816802740097045898e-01
1.379057049751281738e+00 -5.280774831771850586e-01 4.344823360443115234e-01
9.538540840148925781e-01 4.716124385595321655e-02 4.918155074119567871e-01
1.562417030334472656e+00 2.432803809642791748e-01 7.080385684967041016e-01
1.142552137374877930e+00 -3.190993890166282654e-02 4.493121504783630371e-01
1.507328748703002930e+00 2.689279913902282715e-01 4.919397234916687012e-01
1.038791894912719727e+00 2.771074175834655762e-01 4.619905352592468262e-01
1.097299456596374512e+00 2.155386060476303101e-01 4.717147946357727051e-01
9.995843768119812012e-01 -8.070925623178482056e-02 4.623890519142150879e-01
9.708724021911621094e-01 -1.489622741937637329e-01 4.915235638618469238e-01
1.632998347282409668e+00 1.626784801483154297e-01 4.767558276653289795e-01
9.865546822547912598e-01 -1.609130203723907471e-01 4.874257743358612061e-01
1.417005896568298340e+00 -5.412083268165588379e-01 4.882126152515411377e-01
1.147442579269409180e+00 -2.002685666084289551e-01 4.882130324840545654e-01
1.561493277549743652e+00 2.361043989658355713e-01 7.135114669799804688e-01
1.582002639770507812e+00 2.436577677726745605e-01 6.992595791816711426e-01
1.112044811248779297e+00 1.784672588109970093e-01 5.274065732955932617e-01
1.658467411994934082e+00 -3.960898518562316895e-02 7.223391532897949219e-01
1.477151870727539062e+00 2.974818944931030273e-01 6.703132390975952148e-01
9.474248886108398438e-01 6.924615055322647095e-02 4.880933463573455811e-01
1.678892970085144043e+00 -4.076472669839859009e-02 4.733876585960388184e-01
1.532450795173645020e+00 2.759995162487030029e-01 6.894963979721069336e-01
1.306429028511047363e+00 3.088652491569519043e-01 6.012248396873474121e-01
9.800317287445068359e-01 -2.649688720703125000e-01 4.881305396556854248e-01
1.145690917968750000e+00 -1.005282998085021973e-01 4.560322463512420654e-01
1.662680864334106445e+00 -6.540349125862121582e-02 4.878338873386383057e-01
1.133490920066833496e+00 -1.695258766412734985e-01 4.907300174236297607e-01
1.169239044189453125e+00 2.878367006778717041e-01 4.901686608791351318e-01
1.447045564651489258e+00 3.374059498310089111e-01 4.308551847934722900e-01
1.658711433410644531e+00 -3.666665852069854736e-01 5.170093774795532227e-01
1.681228756904602051e+00 -2.378845959901809692e-01 5.435054302215576172e-01
1.368776321411132812e+00 -5.335207581520080566e-01 4.206397235393524170e-01
1.068295836448669434e+00 -3.961780667304992676e-01 4.919189810752868652e-01
1.157604455947875977e+00 -1.877403557300567627e-01 4.761721789836883545e-01
1.636356592178344727e+00 1.080772802233695984e-01 7.391383051872253418e-01
1.128629684448242188e+00 2.913818657398223877e-01 4.916739165782928467e-01
1.594239473342895508e+00 1.226496547460556030e-01 4.881181716918945312e-01
1.182463526725769043e+00 -2.087329775094985962e-01 4.487570524215698242e-01
1.550134420394897461e+00 -4.454002082347869873e-01 4.925782680511474609e-01
1.348858118057250977e+00 3.199025690555572510e-01 5.678114295005798340e-01
1.184201478958129883e+00 2.939508557319641113e-01 4.909756779670715332e-01
1.631163239479064941e+00 -8.716399222612380981e-02 4.954472780227661133e-01
1.585942387580871582e+00 1.823791414499282837e-01 4.924649298191070557e-01
1.067804932594299316e+00 -3.057247102260589600e-01 4.627622365951538086e-01
1.151103138923645020e+00 -4.224136173725128174e-01 4.225279092788696289e-01
1.565579414367675781e+00 1.781685203313827515e-01 7.238062024116516113e-01
1.341871500015258789e+00 3.147680759429931641e-01 6.191747188568115234e-01
1.285403132438659668e+00 3.053178489208221436e-01 5.605915784835815430e-01
9.601145386695861816e-01 3.223606199026107788e-02 4.932742416858673096e-01
1.067393422126770020e+00 -2.954961061477661133e-01 4.375295937061309814e-01
1.428766608238220215e+00 3.409968912601470947e-01 4.659170210361480713e-01
9.825842380523681641e-01 5.934882443398237228e-03 4.855401217937469482e-01
1.264187812805175781e+00 -5.458627939224243164e-01 4.956031441688537598e-01
9.945087432861328125e-01 2.939868159592151642e-02 4.801408946514129639e-01
1.047101497650146484e+00 2.685825824737548828e-01 4.789684116840362549e-01
1.316560029983520508e+00 3.148809969425201416e-01 5.943989157676696777e-01
1.162220001220703125e+00 3.463609218597412109e-01 4.636703133583068848e-01
1.127669453620910645e+00 -2.299568504095077515e-01 4.930569231510162354e-01
1.070332527160644531e+00 2.570948004722595215e-01 4.910682737827301025e-01
1.364084005355834961e+00 -3.089893162250518799e-01 4.728164970874786377e-01
1.609253048896789551e+00 2.318229526281356812e-01 6.626809835433959961e-01
1.533049464225769043e+00 -4.425659179687500000e-01 4.678627550601959229e-01
1.658982515335083008e+00 2.408359758555889130e-02 4.894942045211791992e-01
1.348892688751220703e+00 -5.287747979164123535e-01 4.251435101032257080e-01
1.573563098907470703e+00 2.590526044368743896e-01 4.341920614242553711e-01
1.608440637588500977e+00 1.709357053041458130e-01 7.283548116683959961e-01
1.148997187614440918e+00 1.998999118804931641e-01 5.639582276344299316e-01
1.566285848617553711e+00 2.706338465213775635e-01 6.602638959884643555e-01
1.453395128250122070e+00 -2.972354590892791748e-01 4.905589222908020020e-01
9.710425138473510742e-01 -2.435075044631958008e-01 4.880473911762237549e-01
1.669381022453308105e+00 -2.626212835311889648e-01 5.783582925796508789e-01
1.309702992439270020e+00 -3.065314590930938721e-01 4.637560248374938965e-01
1.477169275283813477e+00 3.026496767997741699e-01 6.630600094795227051e-01
1.045015811920166016e+00 2.724577188491821289e-01 4.742647707462310791e-01
1.430870890617370605e+00 2.842514514923095703e-01 4.925249218940734863e-01
1.246128797531127930e+00 2.651344835758209229e-01 6.023462414741516113e-01
1.136415719985961914e+00 -2.246427834033966064e-01 4.940991103649139404e-01
9.662681221961975098e-01 -7.251953333616256714e-02 4.911177456378936768e-01
1.663569092750549316e+00 -2.239056378602981567e-01 5.138347744941711426e-01
1.375364780426025391e+00 -3.362145423889160156e-01 4.936713874340057373e-01
1.404114246368408203e+00 -5.274916291236877441e-01 4.412932991981506348e-01
1.519181370735168457e+00 2.903546094894409180e-01 4.745616614818572998e-01
9.359136223793029785e-01 -5.808153003454208374e-02 4.892050027847290039e-01
1.674010276794433594e+00 9.166611731052398682e-02 4.633432924747467041e-01
1.090096116065979004e+00 2.688346207141876221e-01 4.914381802082061768e-01
1.401910543441772461e+00 3.545805513858795166e-01 4.464558959007263184e-01
1.331642031669616699e+00 3.598269820213317871e-01 4.725410342216491699e-01
1.311281323432922363e+00 -3.054455518722534180e-01 4.592549502849578857e-01
1.688560605049133301e+00 -2.824464067816734314e-02 6.936405897140502930e-01
1.251102685928344727e+00 -4.956037402153015137e-01 4.595986306667327881e-01
9.886687994003295898e-01 1.483083665370941162e-01 4.920299053192138672e-01
1.545967578887939453e+00 2.605096399784088135e-01 4.835752546787261963e-01
1.418446540832519531e+00 -5.655775070190429688e-01 4.946886599063873291e-01
1.232477307319641113e+00 -2.734649479389190674e-01 4.648525118827819824e-01
1.347098112106323242e+00 -5.820962190628051758e-01 4.938831329345703125e-01
1.535250782966613770e+00 2.143646776676177979e-01 4.918096661567687988e-01
1.307963132858276367e+00 3.086435198783874512e-01 5.592014789581298828e-01
1.500975251197814941e+00 2.696751952171325684e-01 6.934332847595214844e-01
1.583932161331176758e+00 1.353995054960250854e-01 7.305654883384704590e-01
1.068541288375854492e+00 -1.256405096501111984e-02 5.079463720321655273e-01
1.661902427673339844e+00 1.342232525348663330e-01 7.076845169067382812e-01
1.317796468734741211e+00 3.070247471332550049e-01 5.531417131423950195e-01
1.342548012733459473e+00 3.067428767681121826e-01 4.911660552024841309e-01
1.263742327690124512e+00 -5.242570042610168457e-01 4.034714400768280029e-01
1.089995741844177246e+00 3.088457286357879639e-01 4.684886932373046875e-01
1.590755820274353027e+00 2.462528795003890991e-01 6.856297254562377930e-01
1.306974053382873535e+00 3.043658137321472168e-01 6.096057295799255371e-01
1.454122900962829590e+00 3.204600811004638672e-01 6.240071654319763184e-01
1.678034186363220215e+00 -2.891948223114013672e-01 5.135225057601928711e-01
1.550197362899780273e+00 2.711221575736999512e-01 4.710917174816131592e-01
1.534213304519653320e+00 2.779620289802551270e-01 6.865687966346740723e-01
1.614643335342407227e+00 2.113653868436813354e-01 7.044662833213806152e-01
1.220163941383361816e+00 -5.176031589508056641e-01 4.941748976707458496e-01
1.235935091972351074e+00 -3.402242362499237061e-01 4.920774996280670166e-01
1.424908161163330078e+00 3.003014326095581055e-01 6.628858447074890137e-01
1.256625890731811523e+00 3.366500735282897949e-01 4.910102188587188721e-01
1.198658704757690430e+00 -3.024109899997711182e-01 4.923401474952697754e-01
1.668184638023376465e+00 1.265392005443572998e-01 6.817100644111633301e-01
1.189194798469543457e+00 -2.821912467479705811e-01 4.917590916156768799e-01
1.632019639015197754e+00 -3.337145969271659851e-02 4.941782951354980469e-01
1.686992049217224121e+00 -5.502825975418090820e-02 4.473211169242858887e-01
1.476561069488525391e+00 2.910801470279693604e-01 6.765385270118713379e-01
1.259649991989135742e+00 -5.050881505012512207e-01 4.710978567600250244e-01
1.164290189743041992e+00 -1.821647584438323975e-01 4.589156806468963623e-01
1.129159927368164062e+00 -1.004176586866378784e-01 4.883991479873657227e-01
1.061967015266418457e+00 2.081490904092788696e-01 4.882803261280059814e-01
1.315087437629699707e+00 3.028405904769897461e-01 4.890066385269165039e-01
1.484222292900085449e+00 2.706843912601470947e-01 6.896959543228149414e-01
1.535773515701293945e+00 2.897531390190124512e-01 4.351355433464050293e-01
1.554938197135925293e+00 2.763139307498931885e-01 6.671422123908996582e-01
1.344899654388427734e+00 -5.229635834693908691e-01 4.559852480888366699e-01
1.498297333717346191e+00 3.160933852195739746e-01 4.445812106132507324e-01
1.325826287269592285e+00 -5.437351465225219727e-01 4.901736080646514893e-01
1.250436544418334961e+00 -2.854269444942474365e-01 4.205711781978607178e-01
1.655157923698425293e+00 1.642567962408065796e-01 6.957165598869323730e-01
1.159615397453308105e+00 9.421560168266296387e-02 5.360262989997863770e-01
1.022758007049560547e+00 -3.141863942146301270e-01 4.910373389720916748e-01
1.486182808876037598e+00 -4.931558072566986084e-01 4.527106583118438721e-01
1.494554877281188965e+00 -5.025860667228698730e-01 4.814499914646148682e-01
1.300904870033264160e+00 3.123300671577453613e-01 4.917488396167755127e-01
1.304489016532897949e+00 3.067239522933959961e-01 6.042407751083374023e-01
1.212368249893188477e+00 -3.158198595046997070e-01 4.924874901771545410e-01
1.393596887588500977e+00 3.426107764244079590e-01 4.780266284942626953e-01
1.309564828872680664e+00 -3.335498869419097900e-01 4.909175932407379150e-01
1.398638367652893066e+00 -3.152905702590942383e-01 4.873349964618682861e-01
1.688496351242065430e+00 2.240747399628162384e-02 4.567968249320983887e-01
1.485900282859802246e+00 3.077591955661773682e-01 6.091787815093994141e-01
1.616746544837951660e+00 6.333535164594650269e-02 7.395730614662170410e-01
1.687096595764160156e+00 2.811141870915889740e-02 6.930560469627380371e-01
1.498297333717346191e+00 3.160933852195739746e-01 4.445812106132507324e-01
1.414670109748840332e+00 3.300780653953552246e-01 6.171069145202636719e-01
1.619855523109436035e+00 2.118721008300781250e-01 6.623356938362121582e-01
1.084037899971008301e+00 3.126484155654907227e-01 4.502129852771759033e-01
1.519117832183837891e+00 3.018059730529785156e-01 4.377050101757049561e-01
1.661022543907165527e+00 1.192934811115264893e-01 4.670565128326416016e-01
1.355266928672790527e+00 -3.135600686073303223e-01 4.775827825069427490e-01
1.218670606613159180e+00 2.244343310594558716e-01 5.977952480316162109e-01
1.072089552879333496e+00 3.042198419570922852e-01 4.500706791877746582e-01
1.146970510482788086e+00 -1.686256676912307739e-01 4.804310202598571777e-01
1.658777117729187012e+00 1.504299938678741455e-01 6.848801374435424805e-01
1.542316317558288574e+00 2.489926517009735107e-01 4.904224574565887451e-01
1.577410697937011719e+00 -5.019227862358093262e-01 4.890749454498291016e-01
1.575619101524353027e+00 -4.087705612182617188e-01 5.018573403358459473e-01
1.652978301048278809e+00 5.661107972264289856e-02 7.353200912475585938e-01
1.650516152381896973e+00 -3.715156391263008118e-02 7.245160937309265137e-01
1.338316082954406738e+00 3.204192519187927246e-01 6.045663952827453613e-01
1.247783541679382324e+00 -5.041546225547790527e-01 4.778082668781280518e-01
1.273300290107727051e+00 3.383837044239044189e-01 4.908291995525360107e-01
1.489603996276855469e+00 -4.925632178783416748e-01 4.606329202651977539e-01
1.395552158355712891e+00 3.153280615806579590e-01 6.445179581642150879e-01
1.142262458801269531e+00 1.968662291765213013e-01 5.587781071662902832e-01
1.427513718605041504e+00 3.039144277572631836e-01 6.612473130226135254e-01
1.336494684219360352e+00 3.021788001060485840e-01 6.300954818725585938e-01
1.672618269920349121e+00 -3.494105339050292969e-01 4.774193465709686279e-01
1.419739723205566406e+00 -5.312189459800720215e-01 4.768092036247253418e-01
1.037817955017089844e+00 -3.723612725734710693e-01 4.888282418251037598e-01
1.070620536804199219e+00 -3.040823340415954590e-01 4.529437720775604248e-01
1.622879743576049805e+00 -4.010087251663208008e-01 5.192709565162658691e-01
1.190857052803039551e+00 -2.266428619623184204e-01 4.615985155105590820e-01
1.679784893989562988e+00 -1.237666532397270203e-01 6.266899704933166504e-01
1.673991799354553223e+00 4.234575107693672180e-02 7.239415049552917480e-01
1.240581512451171875e+00 2.762522399425506592e-01 5.893088579177856445e-01
1.246868491172790527e+00 -4.960428178310394287e-01 4.272510409355163574e-01
1.259473085403442383e+00 2.709511518478393555e-01 6.074442267417907715e-01
1.422640562057495117e+00 3.483730554580688477e-01 4.445499777793884277e-01
1.299376845359802246e+00 -5.248106122016906738e-01 4.146784543991088867e-01
1.087466835975646973e+00 -3.934520184993743896e-01 4.901860952377319336e-01
9.736090898513793945e-01 1.280436068773269653e-01 4.909901618957519531e-01
1.542397022247314453e+00 2.842206954956054688e-01 6.644615530967712402e-01
1.538149118423461914e+00 2.113633155822753906e-01 4.917459189891815186e-01
9.731984734535217285e-01 -1.290716081857681274e-01 4.904612004756927490e-01
1.199663996696472168e+00 -4.799894988536834717e-01 4.843456745147705078e-01
1.299993157386779785e+00 -3.007620275020599365e-01 4.500009119510650635e-01
1.395552158355712891e+00 3.153280615806579590e-01 6.445179581642150879e-01
1.482445955276489258e+00 3.086588084697723389e-01 4.793552160263061523e-01
1.417861223220825195e+00 -3.159074485301971436e-01 4.911453723907470703e-01
1.641636013984680176e+00 -1.526187267154455185e-02 4.940285682678222656e-01
1.015603423118591309e+00 -1.906437128782272339e-01 4.693514108657836914e-01
1.480612993240356445e+00 2.960622310638427734e-01 6.714712977409362793e-01
1.000130891799926758e+00 -5.628736317157745361e-02 4.572130441665649414e-01
1.220153570175170898e+00 3.493110537528991699e-01 4.825381040573120117e-01
1.505405902862548828e+00 2.866596579551696777e-01 4.854339957237243652e-01
1.670875668525695801e+00 -1.421232968568801880e-01 6.435989141464233398e-01
1.644386529922485352e+00 1.728138774633407593e-01 6.691931486129760742e-01
1.151190400123596191e+00 -1.410232633352279663e-01 4.320360422134399414e-01
1.655949711799621582e+00 7.654739171266555786e-02 4.867277741432189941e-01
1.641124486923217773e+00 -3.670093715190887451e-01 5.299097895622253418e-01
1.663416981697082520e+00 -2.550211250782012939e-01 4.907799959182739258e-01
1.604406952857971191e+00 2.290726751089096069e-01 4.458504617214202881e-01
1.287869811058044434e+00 2.972728013992309570e-01 6.056301593780517578e-01
1.166951894760131836e+00 2.254599481821060181e-01 5.652146339416503906e-01
1.150793671607971191e+00 -4.159701466560363770e-01 4.436397552490234375e-01
1.468801021575927734e+00 3.267588019371032715e-01 4.601749479770660400e-01
1.248751878738403320e+00 2.810687422752380371e-01 5.910754799842834473e-01
1.454535961151123047e+00 3.179006874561309814e-01 6.382889747619628906e-01
1.171638369560241699e+00 2.988564372062683105e-01 4.921998381614685059e-01
1.124825000762939453e+00 -1.228242516517639160e-01 4.923101663589477539e-01
1.659989118576049805e+00 1.461260467767715454e-01 6.881719231605529785e-01
1.119840621948242188e+00 -3.827494084835052490e-01 4.447331130504608154e-01
9.679930806159973145e-01 -1.955255568027496338e-01 4.915092885494232178e-01
1.675385832786560059e+00 3.241054341197013855e-02 4.770328104496002197e-01
1.443199753761291504e+00 2.945304811000823975e-01 6.699098348617553711e-01
1.171216487884521484e+00 -1.925540864467620850e-01 4.453713595867156982e-01
1.033026814460754395e+00 2.702582180500030518e-01 4.664597511291503906e-01
1.262266516685485840e+00 2.927656173706054688e-01 5.889266729354858398e-01
1.636459946632385254e+00 1.953291147947311401e-01 6.826357841491699219e-01
1.145940423011779785e+00 -5.028935074806213379e-01 4.904185831546783447e-01
1.188455700874328613e+00 -2.921827733516693115e-01 4.923525750637054443e-01
1.327530026435852051e+00 -5.271593928337097168e-01 4.752416014671325684e-01
1.388623714447021484e+00 3.132991194725036621e-01 5.657793283462524414e-01
1.211513757705688477e+00 2.356784045696258545e-01 5.945937037467956543e-01
9.821689128875732422e-01 -4.340469837188720703e-02 4.840384721755981445e-01
1.018142580986022949e+00 7.464230060577392578e-02 4.632492661476135254e-01
1.564954876899719238e+00 2.619875073432922363e-01 6.849035024642944336e-01
1.023758649826049805e+00 2.315440475940704346e-01 4.859917163848876953e-01
1.259602069854736328e+00 2.893643975257873535e-01 5.909209847450256348e-01
1.361122608184814453e+00 3.629052639007568359e-01 4.259025752544403076e-01
1.025518059730529785e+00 9.177449345588684082e-02 4.586372077465057373e-01
1.274707555770874023e+00 -5.040118098258972168e-01 4.549541175365447998e-01
1.064739346504211426e+00 -2.949157655239105225e-01 4.545325040817260742e-01
1.609253048896789551e+00 2.318229526281356812e-01 6.626809835433959961e-01
1.171889901161193848e+00 -1.931968331336975098e-01 4.394770860671997070e-01
1.137466073036193848e+00 -4.048778712749481201e-01 4.304818511009216309e-01
1.170603632926940918e+00 3.533422946929931641e-01 4.388031959533691406e-01
1.441593647003173828e+00 3.207646906375885010e-01 4.832822680473327637e-01
1.333620905876159668e+00 -5.270089507102966309e-01 4.723212420940399170e-01
1.664494156837463379e+00 1.327309757471084595e-01 6.932277083396911621e-01
1.631942868232727051e+00 -5.910589173436164856e-02 4.956161677837371826e-01
1.222167611122131348e+00 -2.636523544788360596e-01 4.646021127700805664e-01
1.451783776283264160e+00 2.715108394622802734e-01 4.920435249805450439e-01
1.199048042297363281e+00 3.000195026397705078e-01 4.917781054973602295e-01
1.411576867103576660e+00 -2.885473072528839111e-01 4.266211688518524170e-01
1.114905118942260742e+00 -1.883815973997116089e-01 4.955098032951354980e-01
1.158753156661987305e+00 -1.792226433753967285e-01 4.693344533443450928e-01
1.599914908409118652e+00 1.081962734460830688e-01 4.882401823997497559e-01
9.905263781547546387e-01 -9.847946465015411377e-02 4.785444438457489014e-01
1.104949235916137695e+00 3.240583539009094238e-01 4.401932358741760254e-01
1.118395566940307617e+00 2.700377404689788818e-01 4.908869266510009766e-01
1.664757132530212402e+00 -2.160267233848571777e-01 5.244297981262207031e-01
1.042138218879699707e+00 -3.469408452510833740e-01 4.907378852367401123e-01
1.259583950042724609e+00 -4.985208511352539062e-01 4.382737278938293457e-01
1.321715950965881348e+00 -3.060079514980316162e-01 4.584437906742095947e-01
1.506417989730834961e+00 2.829074263572692871e-01 6.837144494056701660e-01
1.146243929862976074e+00 7.900358177721500397e-03 4.895052313804626465e-01
1.223755717277526855e+00 -2.624906003475189209e-01 4.601091742515563965e-01
1.010704517364501953e+00 1.471883505582809448e-01 4.914649426937103271e-01
1.683408617973327637e+00 -5.648849532008171082e-03 7.081437110900878906e-01
1.091886281967163086e+00 2.987787127494812012e-01 4.808611273765563965e-01
1.066015005111694336e+00 2.857106924057006836e-01 4.761435389518737793e-01
1.566078186035156250e+00 -4.117694199085235596e-01 4.953207373619079590e-01
9.838076829910278320e-01 1.999442428350448608e-01 4.763877093791961670e-01
1.648137331008911133e+00 3.060347586870193481e-02 4.923770129680633545e-01
1.521989226341247559e+00 2.624216079711914062e-01 7.011311650276184082e-01
1.648635625839233398e+00 1.632629781961441040e-01 4.485170245170593262e-01
1.335276126861572266e+00 3.122300505638122559e-01 6.192953586578369141e-01
9.826852679252624512e-01 6.262917071580886841e-02 4.910156726837158203e-01
1.576752781867980957e+00 1.914397925138473511e-01 7.271917462348937988e-01
1.588562846183776855e+00 1.447935402393341064e-01 7.331463694572448730e-01
1.482848286628723145e+00 2.604327201843261719e-01 4.933721125125885010e-01
1.363471865653991699e+00 3.191644847393035889e-01 5.651858448982238770e-01
1.429667830467224121e+00 3.248934745788574219e-01 4.839166402816772461e-01
1.523333668708801270e+00 2.936795651912689209e-01 6.538011431694030762e-01
1.435318470001220703e+00 -5.196344852447509766e-01 4.370867908000946045e-01
9.621581435203552246e-01 7.416120171546936035e-02 4.922373294830322266e-01
1.213327288627624512e+00 -2.967446148395538330e-01 4.906181991100311279e-01
1.504507184028625488e+00 2.646876275539398193e-01 4.930072724819183350e-01
1.677506446838378906e+00 7.380196452140808105e-02 4.653705656528472900e-01
1.165200471878051758e+00 -1.780356466770172119e-01 4.379091560840606689e-01
1.293698310852050781e+00 -5.607836842536926270e-01 4.965120851993560791e-01
1.196434378623962402e+00 2.472530454397201538e-01 5.764713287353515625e-01
1.336326241493225098e+00 2.878083884716033936e-01 4.816333651542663574e-01
1.217571020126342773e+00 2.875966429710388184e-01 4.841236174106597900e-01
1.086601734161376953e+00 3.146268427371978760e-01 4.413809776306152344e-01
1.084111809730529785e+00 -3.810298740863800049e-01 4.884673953056335449e-01
1.362388134002685547e+00 -5.392053723335266113e-01 4.803338944911956787e-01
1.359296202659606934e+00 3.212378323078155518e-01 5.693054199218750000e-01
1.385532855987548828e+00 3.120691180229187012e-01 4.928206503391265869e-01
1.298833489418029785e+00 -3.510272800922393799e-01 4.943565726280212402e-01
1.669041514396667480e+00 1.523347757756710052e-02 4.847203195095062256e-01
1.367665648460388184e+00 3.549741804599761963e-01 4.137569367885589600e-01
1.394544363021850586e+00 3.080343902111053467e-01 6.501905322074890137e-01
1.618233799934387207e+00 1.787545084953308105e-01 7.231500744819641113e-01
1.103119254112243652e+00 -3.891732990741729736e-01 4.816482663154602051e-01
1.407689690589904785e+00 -2.865926623344421387e-01 4.490002691745758057e-01
1.180480122566223145e+00 2.377278506755828857e-01 5.681538581848144531e-01
1.602289676666259766e+00 2.186231166124343872e-01 4.708323776721954346e-01
1.669381022453308105e+00 -2.626212835311889648e-01 5.783582925796508789e-01
1.025572657585144043e+00 -3.461136817932128906e-01 4.893638789653778076e-01
1.448276162147521973e+00 2.754051983356475830e-01 6.773848533630371094e-01
1.247814059257507324e+00 -4.978417158126831055e-01 4.689045846462249756e-01
1.532469391822814941e+00 2.917900979518890381e-01 4.343115091323852539e-01
1.557680845260620117e+00 2.656698226928710938e-01 6.878923177719116211e-01
1.456897139549255371e+00 3.192674517631530762e-01 6.301081776618957520e-01
1.210049510002136230e+00 2.926284968852996826e-01 4.882738590240478516e-01
1.555851817131042480e+00 2.597889006137847900e-01 4.784372150897979736e-01
1.467064976692199707e+00 -2.820195555686950684e-01 4.885416328907012939e-01
1.187530040740966797e+00 -2.169382870197296143e-01 4.530563056468963623e-01
1.124415278434753418e+00 -3.904875814914703369e-01 4.552385509014129639e-01
9.838874936103820801e-01 -2.860425114631652832e-01 4.860156178474426270e-01
1.678499102592468262e+00 -1.365823447704315186e-01 6.243155002593994141e-01
1.492534160614013672e+00 3.099314272403717041e-01 6.299149394035339355e-01
1.162220001220703125e+00 3.463609218597412109e-01 4.636703133583068848e-01
1.117428779602050781e+00 -4.549149870872497559e-01 4.934357404708862305e-01
1.660630583763122559e+00 1.431315988302230835e-01 6.969153285026550293e-01
1.347962737083435059e+00 3.491830229759216309e-01 4.815386235713958740e-01
1.655191302299499512e+00 9.075301140546798706e-02 4.840590059757232666e-01
1.628635048866271973e+00 -2.300387434661388397e-02 4.927738904953002930e-01
1.666422843933105469e+00 -1.327555030584335327e-01 6.619349122047424316e-01
1.166870951652526855e+00 3.341172337532043457e-01 4.817128181457519531e-01
1.413730621337890625e+00 3.298497200012207031e-01 6.216440200805664062e-01
1.019448041915893555e+00 -2.505381405353546143e-01 4.838927388191223145e-01
1.150579810142517090e+00 -4.332558512687683105e-01 4.772738218307495117e-01
1.136699557304382324e+00 -3.326529636979103088e-03 5.016214847564697266e-01
1.333332061767578125e+00 3.194710314273834229e-01 6.012011170387268066e-01
1.143362879753112793e+00 -6.351983547210693359e-02 4.506627917289733887e-01
1.147518515586853027e+00 3.093679845333099365e-01 4.900617897510528564e-01
1.197936177253723145e+00 3.528633415699005127e-01 4.715611338615417480e-01
1.463922739028930664e+00 3.036184310913085938e-01 5.885177254676818848e-01
9.874727129936218262e-01 5.298467725515365601e-02 4.885481595993041992e-01
1.598147153854370117e+00 2.311809509992599487e-01 4.597328603267669678e-01
1.519873619079589844e+00 2.454111129045486450e-01 7.055627107620239258e-01
1.620218276977539062e+00 2.059323191642761230e-01 7.045466303825378418e-01
1.113730669021606445e+00 3.128989040851593018e-01 4.785366058349609375e-01
1.336849808692932129e+00 3.216425776481628418e-01 5.885444283485412598e-01
1.206251263618469238e+00 -2.990394830703735352e-01 4.918613135814666748e-01
1.169610977172851562e+00 3.176791369915008545e-01 4.906107187271118164e-01
1.121988177299499512e+00 1.866822391748428345e-01 5.370627641677856445e-01
1.464924097061157227e+00 3.311754465103149414e-01 4.439104199409484863e-01
1.645917296409606934e+00 -1.161133199930191040e-01 4.872137904167175293e-01
1.490538597106933594e+00 3.197383880615234375e-01 4.474734365940093994e-01
1.578885793685913086e+00 2.544078528881072998e-01 4.401877820491790771e-01
1.677963018417358398e+00 1.985049247741699219e-02 4.764287471771240234e-01
1.650822639465332031e+00 1.559579521417617798e-01 7.136452198028564453e-01
1.450509071350097656e+00 2.923018038272857666e-01 6.727599501609802246e-01
1.676907181739807129e+00 -1.630629301071166992e-01 6.144173145294189453e-01
1.450088500976562500e+00 -3.029205799102783203e-01 4.915980994701385498e-01
1.659277915954589844e+00 -1.802793592214584351e-01 6.329460740089416504e-01
1.434162139892578125e+00 3.359254896640777588e-01 4.716319441795349121e-01
1.615950226783752441e+00 -1.446139067411422729e-01 4.926781654357910156e-01
1.448587775230407715e+00 -5.313674211502075195e-01 4.850808680057525635e-01
1.246749758720397949e+00 -5.128745436668395996e-01 4.850909709930419922e-01
1.042017221450805664e+00 1.299627125263214111e-01 4.585926532745361328e-01
1.669381022453308105e+00 -2.626212835311889648e-01 5.783582925796508789e-01
1.386562824249267578e+00 -5.882518291473388672e-01 4.920056760311126709e-01
1.131078004837036133e+00 -1.481856256723403931e-01 4.885383844375610352e-01
1.352351307868957520e+00 -3.060755133628845215e-01 4.624516963958740234e-01
1.580300688743591309e+00 -3.980517685413360596e-01 5.041971206665039062e-01
1.119927525520324707e+00 3.076699674129486084e-01 4.847106635570526123e-01
1.100681066513061523e+00 -1.941531598567962646e-01 4.915256798267364502e-01
1.673719882965087891e+00 1.396416313946247101e-02 4.812802374362945557e-01
1.281699895858764648e+00 2.693745493888854980e-01 6.187083721160888672e-01
1.187737226486206055e+00 -4.510978758335113525e-01 4.625326991081237793e-01
9.893828630447387695e-01 -1.654489487409591675e-01 4.866024851799011230e-01
1.446894049644470215e+00 3.370602130889892578e-01 4.583212435245513916e-01
1.155598521232604980e+00 -4.422586262226104736e-01 4.813628494739532471e-01
1.589799642562866211e+00 2.413416653871536255e-01 6.973577141761779785e-01
9.344145655632019043e-01 -1.187742128968238831e-02 4.877043068408966064e-01
1.269337296485900879e+00 2.931497395038604736e-01 5.445306301116943359e-01
1.551304578781127930e+00 2.796227037906646729e-01 4.441944360733032227e-01
1.587113738059997559e+00 2.135447859764099121e-01 4.853717684745788574e-01
1.404659032821655273e+00 -2.914547622203826904e-01 4.272486865520477295e-01
1.131309151649475098e+00 1.939316689968109131e-01 5.458745360374450684e-01
1.210465788841247559e+00 -2.444363981485366821e-01 4.448335468769073486e-01
9.868116974830627441e-01 2.107360064983367920e-01 4.722277224063873291e-01
1.675599336624145508e+00 9.981930255889892578e-02 4.362219274044036865e-01
1.209587931632995605e+00 -4.829299747943878174e-01 4.816825091838836670e-01
1.653766870498657227e+00 9.017465263605117798e-02 7.338948249816894531e-01
1.512864470481872559e+00 2.698194384574890137e-01 4.904874265193939209e-01
1.087884664535522461e+00 -3.325390517711639404e-01 4.475318789482116699e-01
1.060272097587585449e+00 -2.849300205707550049e-01 4.512153863906860352e-01
1.276769995689392090e+00 3.670994639396667480e-01 4.657357931137084961e-01
9.958556890487670898e-01 2.277740836143493652e-02 4.774613380432128906e-01
1.341360330581665039e+00 3.201913833618164062e-01 4.930178523063659668e-01
1.155236363410949707e+00 -1.536546796560287476e-01 4.570814371109008789e-01
1.137794613838195801e+00 -4.252252876758575439e-01 4.809998273849487305e-01
1.318238854408264160e+00 3.564297854900360107e-01 4.788817465305328369e-01
1.320304512977600098e+00 -3.033643066883087158e-01 4.473337233066558838e-01
1.018443584442138672e+00 2.315244674682617188e-01 4.831225872039794922e-01
1.249798774719238281e+00 -5.021448135375976562e-01 4.737643301486968994e-01
1.496223330497741699e+00 2.924386858940124512e-01 6.731930375099182129e-01
1.625348687171936035e+00 8.953278511762619019e-02 4.923776686191558838e-01
9.549379944801330566e-01 2.510797791182994843e-02 4.929300844669342041e-01
1.585420489311218262e+00 2.246002405881881714e-01 4.803468585014343262e-01
1.300795555114746094e+00 3.110033273696899414e-01 5.832872390747070312e-01
1.673491954803466797e+00 -3.038290143013000488e-01 4.860942065715789795e-01
1.136277079582214355e+00 -1.740322411060333252e-01 4.898738265037536621e-01
1.638849735260009766e+00 1.199305281043052673e-01 4.865374267101287842e-01
1.134469509124755859e+00 1.920886784791946411e-01 5.521124601364135742e-01
1.349962711334228516e+00 -5.872132182121276855e-01 4.928162395954132080e-01
1.586327791213989258e+00 2.192270010709762573e-01 4.829928278923034668e-01
1.627371072769165039e+00 -6.476454436779022217e-02 7.081577181816101074e-01
9.756685495376586914e-01 8.472772687673568726e-02 4.929103255271911621e-01
1.362549901008605957e+00 -5.729153752326965332e-01 4.937679469585418701e-01
1.096604466438293457e+00 -3.811084628105163574e-01 4.823781251907348633e-01
1.326705336570739746e+00 -5.600315928459167480e-01 4.946750402450561523e-01
1.680676221847534180e+00 4.644273221492767334e-02 4.668695032596588135e-01
1.614367365837097168e+00 1.433050781488418579e-01 4.913246333599090576e-01
1.677297234535217285e+00 -1.491812318563461304e-01 6.221366524696350098e-01
1.008164644241333008e+00 -2.154953181743621826e-01 4.833938181400299072e-01
9.359136223793029785e-01 -5.808153003454208374e-02 4.892050027847290039e-01
1.571886420249938965e+00 2.466335147619247437e-01 4.747907221317291260e-01
1.666895270347595215e+00 -2.221768200397491455e-01 5.221979022026062012e-01
1.681743025779724121e+00 -6.536069512367248535e-02 4.658634662628173828e-01
1.234323143959045410e+00 -4.854083061218261719e-01 4.624220430850982666e-01
9.663106203079223633e-01 -1.808784604072570801e-01 4.917657375335693359e-01
1.247637033462524414e+00 3.515011966228485107e-01 4.833900034427642822e-01
1.100054502487182617e+00 -3.524569869041442871e-01 4.377604722976684570e-01
1.260232806205749512e+00 3.700844645500183105e-01 4.519252479076385498e-01
1.529747247695922852e+00 2.784838080406188965e-01 4.792136251926422119e-01
1.000942468643188477e+00 2.086942493915557861e-01 4.843997657299041748e-01
1.133991360664367676e+00 -4.012322425842285156e-01 4.305644333362579346e-01
1.536738514900207520e+00 2.875298857688903809e-01 6.580092310905456543e-01
1.180865049362182617e+00 2.255125492811203003e-01 5.781536102294921875e-01
1.689478874206542969e+00 -4.075302742421627045e-03 6.868844032287597656e-01
1.483161449432373047e+00 2.903780639171600342e-01 4.902467131614685059e-01
1.653208017349243164e+00 1.320193111896514893e-01 7.216180562973022461e-01
9.888380169868469238e-01 -1.250853985548019409e-01 4.823369979858398438e-01
1.144029259681701660e+00 -1.321121118962764740e-02 4.830753207206726074e-01
1.631305456161499023e+00 1.080466434359550476e-01 4.909514486789703369e-01
1.649917721748352051e+00 1.209104731678962708e-01 7.286372780799865723e-01
1.030820131301879883e+00 -2.527379989624023438e-01 4.764020442962646484e-01
1.226590991020202637e+00 2.695826888084411621e-01 5.833742618560791016e-01
9.945795536041259766e-01 -2.598588466644287109e-01 4.914312064647674561e-01
1.492618560791015625e+00 2.758717238903045654e-01 4.925695657730102539e-01
1.120934247970581055e+00 -1.029069200158119202e-01 4.945740103721618652e-01
1.359296202659606934e+00 3.212378323078155518e-01 5.693054199218750000e-01
1.576470613479614258e+00 2.561204135417938232e-01 4.341759085655212402e-01
1.482435345649719238e+00 2.960757315158843994e-01 4.878812134265899658e-01
1.687731266021728516e+00 2.669597230851650238e-02 6.875445842742919922e-01
1.147979021072387695e+00 -1.219276785850524902e-01 4.578919112682342529e-01
1.562795996665954590e+00 2.689884901046752930e-01 6.725212931632995605e-01
1.180720448493957520e+00 2.434494346380233765e-01 5.218843817710876465e-01
1.650028705596923828e+00 1.279311180114746094e-01 4.765758216381072998e-01
1.469323635101318359e+00 -5.104809403419494629e-01 4.647669196128845215e-01
1.209415435791015625e+00 2.832007408142089844e-01 4.824864864349365234e-01
1.272568225860595703e+00 -5.118567347526550293e-01 4.199804961681365967e-01
1.454540729522705078e+00 -2.797004580497741699e-01 4.831610023975372314e-01
1.231562376022338867e+00 3.568022251129150391e-01 4.770013391971588135e-01
1.143791556358337402e+00 6.125848740339279175e-02 5.274137854576110840e-01
9.673730134963989258e-01 8.128064125776290894e-02 4.927119612693786621e-01
1.326681852340698242e+00 -3.049148321151733398e-01 4.380482733249664307e-01
1.140614509582519531e+00 1.422237902879714966e-01 5.623204112052917480e-01
1.244082331657409668e+00 -5.529168844223022461e-01 4.948118925094604492e-01
1.224185705184936523e+00 -4.930857121944427490e-01 4.115458428859710693e-01
1.625309467315673828e+00 -5.475927144289016724e-02 4.942785501480102539e-01
1.353506088256835938e+00 3.247835338115692139e-01 5.892891287803649902e-01
1.406000494956970215e+00 3.226402103900909424e-01 6.390490531921386719e-01
1.038892149925231934e+00 -2.381451725959777832e-01 4.516026675701141357e-01
1.100054502487182617e+00 -3.524569869041442871e-01 4.377604722976684570e-01
1.225971221923828125e+00 2.628096044063568115e-01 5.901171565055847168e-01
1.672708392143249512e+00 -3.313431143760681152e-01 5.099323391914367676e-01
1.086113572120666504e+00 -3.296127617359161377e-01 4.360544383525848389e-01
1.605399250984191895e+00 2.213613837957382202e-01 4.635867476463317871e-01
1.624434709548950195e+00 7.078400254249572754e-02 4.913720488548278809e-01
1.414050698280334473e+00 3.305212855339050293e-01 4.832083880901336670e-01
1.295428156852722168e+00 -3.678514063358306885e-01 4.901919960975646973e-01
1.607947707176208496e+00 -1.230008825659751892e-01 4.948515892028808594e-01
1.363676190376281738e+00 3.234960734844207764e-01 4.919828772544860840e-01
1.167003273963928223e+00 -1.846023648977279663e-01 4.354611635208129883e-01
1.647763729095458984e+00 1.629864871501922607e-01 4.311053156852722168e-01
