-1.286131739616394043e+00 1.948663890361785889e-01 6.059955358505249023e-01
-1.288414359092712402e+00 2.006278783082962036e-01 6.070773601531982422e-01
-1.290664196014404297e+00 2.064008265733718872e-01 6.081726551055908203e-01
-1.292895317077636719e+00 2.121769338846206665e-01 6.092750430107116699e-01
-1.295122861862182617e+00 2.179468572139739990e-01 6.103767156600952148e-01
-1.297348380088806152e+00 2.237098664045333862e-01 6.114766597747802734e-01
-1.299570679664611816e+00 2.294663637876510620e-01 6.125751137733459473e-01
-1.302318572998046875e+00 2.349015474319458008e-01 6.134111285209655762e-01
-1.305191040039062500e+00 2.402569204568862915e-01 6.141830086708068848e-01
-1.308060407638549805e+00 2.456078678369522095e-01 6.149547100067138672e-01
-1.310899496078491211e+00 2.509709894657135010e-01 6.157392859458923340e-01
-1.313731551170349121e+00 2.563324272632598877e-01 6.165259480476379395e-01
-1.316562175750732422e+00 2.616886496543884277e-01 6.173113584518432617e-01
-1.319389343261718750e+00 2.670414745807647705e-01 6.180967688560485840e-01
-1.322214961051940918e+00 2.723891139030456543e-01 6.188808679580688477e-01
-1.325037717819213867e+00 2.777326107025146484e-01 6.196644902229309082e-01
-1.327858328819274902e+00 2.830714881420135498e-01 6.204473972320556641e-01
-1.330676674842834473e+00 2.884061634540557861e-01 6.212297677993774414e-01
-1.333767652511596680e+00 2.935774326324462891e-01 6.218766570091247559e-01
-1.337154984474182129e+00 2.985750138759613037e-01 6.223773956298828125e-01
-1.340538382530212402e+00 3.035703599452972412e-01 6.228790283203125000e-01
-1.343920946121215820e+00 3.085626065731048584e-01 6.233794093132019043e-01
-1.347301483154296875e+00 3.135523796081542969e-01 6.238796114921569824e-01
-1.350679755210876465e+00 3.185395598411560059e-01 6.243800520896911621e-01
-1.354056835174560547e+00 3.235239982604980469e-01 6.248795390129089355e-01
-1.357432126998901367e+00 3.285056948661804199e-01 6.253792047500610352e-01
-1.360805273056030273e+00 3.334847390651702881e-01 6.258785128593444824e-01
-1.364176511764526367e+00 3.384618163108825684e-01 6.263778805732727051e-01
-1.367546200752258301e+00 3.434356451034545898e-01 6.268765926361083984e-01
-1.370913863182067871e+00 3.484072089195251465e-01 6.273753643035888672e-01
-1.374875307083129883e+00 3.530454039573669434e-01 6.275856494903564453e-01
-1.378897547721862793e+00 3.576492071151733398e-01 6.277664303779602051e-01
-1.382919907569885254e+00 3.622511029243469238e-01 6.279467940330505371e-01
-1.386941075325012207e+00 3.668526709079742432e-01 6.281270384788513184e-01
-1.390962004661560059e+00 3.714529871940612793e-01 6.283074617385864258e-01
-1.394981980323791504e+00 3.760525286197662354e-01 6.284877061843872070e-01
-1.399001002311706543e+00 3.806517422199249268e-01 6.286681294441223145e-01
-1.403019428253173828e+00 3.852492868900299072e-01 6.288480162620544434e-01
-1.407037377357482910e+00 3.898462653160095215e-01 6.290280818939208984e-01
-1.411054253578186035e+00 3.944419324398040771e-01 6.292082667350769043e-01
-1.415070295333862305e+00 3.990370929241180420e-01 6.293882131576538086e-01
-1.419574141502380371e+00 4.033701717853546143e-01 6.293350458145141602e-01
-1.424317359924316406e+00 4.075759053230285645e-01 6.291680335998535156e-01
-1.429060459136962891e+00 4.117829203605651855e-01 6.290013194084167480e-01
-1.433805108070373535e+00 4.159901142120361328e-01 6.288342475891113281e-01
-1.438550472259521484e+00 4.201981723308563232e-01 6.286671757698059082e-01
-1.443296909332275391e+00 4.244071543216705322e-01 6.285000443458557129e-01
-1.448038935661315918e+00 4.286194443702697754e-01 6.283352375030517578e-01
-1.452760338783264160e+00 4.328438341617584229e-01 6.281805634498596191e-01
-1.457483172416687012e+00 4.370687901973724365e-01 6.280259490013122559e-01
-1.462206363677978516e+00 4.412943720817565918e-01 6.278710961341857910e-01
-1.466930508613586426e+00 4.455201625823974609e-01 6.277161836624145508e-01
-1.471755504608154297e+00 4.496951699256896973e-01 6.275138854980468750e-01
-1.478160977363586426e+00 4.530586898326873779e-01 6.265683770179748535e-01
-1.484572768211364746e+00 4.564256370067596436e-01 6.256215572357177734e-01
-1.490990638732910156e+00 4.597961604595184326e-01 6.246739625930786133e-01
-1.497473597526550293e+00 4.631403088569641113e-01 6.236981153488159180e-01
-1.504229307174682617e+00 4.663528800010681152e-01 6.225963234901428223e-01
-1.510992527008056641e+00 4.695691764354705811e-01 6.214934587478637695e-01
-1.517764210700988770e+00 4.727889597415924072e-01 6.203889250755310059e-01
-1.524543881416320801e+00 4.760128855705261230e-01 6.192832589149475098e-01
-1.531332135200500488e+00 4.792401194572448730e-01 6.181762218475341797e-01
-1.538634181022644043e+00 4.822185337543487549e-01 6.168316602706909180e-01
-1.546870231628417969e+00 4.847411811351776123e-01 6.150549650192260742e-01
-1.555120944976806641e+00 4.872692823410034180e-01 6.132758855819702148e-01
-1.563387632369995117e+00 4.898015260696411133e-01 6.114928722381591797e-01
-1.571669459342956543e+00 4.923391044139862061e-01 6.097065210342407227e-01
-1.580362319946289062e+00 4.946869015693664551e-01 6.077338457107543945e-01
-1.589655041694641113e+00 4.967553019523620605e-01 6.054874658584594727e-01
-1.598968625068664551e+00 4.988287687301635742e-01 6.032362580299377441e-01
-1.613058209419250488e+00 4.985938668251037598e-01 5.987821817398071289e-01
-1.638431429862976074e+00 4.929176867008209229e-01 5.891276001930236816e-01
-1.330737829208374023e+00 -2.160504311323165894e-01 4.571146070957183838e-01
-1.319482445716857910e+00 -1.999281793832778931e-01 4.656572043895721436e-01
-1.311485409736633301e+00 -1.861704438924789429e-01 4.724457561969757080e-01
-1.305704593658447266e+00 -1.740241944789886475e-01 4.780396521091461182e-01
-1.301490664482116699e+00 -1.630203723907470703e-01 4.827881753444671631e-01
-1.300107121467590332e+00 -1.540309637784957886e-01 4.860253632068634033e-01
-1.298810720443725586e+00 -1.451277881860733032e-01 4.892079830169677734e-01
-1.298308014869689941e+00 -1.368010044097900391e-01 4.919634163379669189e-01
-1.298602938652038574e+00 -1.290482282638549805e-01 4.942901134490966797e-01
-1.298788785934448242e+00 -1.212382018566131592e-01 4.966692924499511719e-01
-1.300903916358947754e+00 -1.147742122411727905e-01 4.980265796184539795e-01
-1.302608609199523926e+00 -1.080398485064506531e-01 4.995959103107452393e-01
-1.306154727935791016e+00 -1.025763228535652161e-01 5.001941919326782227e-01
-1.310313701629638672e+00 -9.753598272800445557e-02 5.004690885543823242e-01
-1.317754626274108887e+00 -9.472870081663131714e-02 4.990232884883880615e-01
-1.330125570297241211e+00 -9.525007009506225586e-02 4.950002431869506836e-01
-1.267880320549011230e+00 5.358075350522994995e-02 5.608653426170349121e-01
-1.265801668167114258e+00 6.240655854344367981e-02 5.642680525779724121e-01
-1.265299558639526367e+00 7.018905133008956909e-02 5.668531656265258789e-01
-1.264369249343872070e+00 7.822676002979278564e-02 5.696518421173095703e-01
-1.263595581054687500e+00 8.614280074834823608e-02 5.723629593849182129e-01
-1.264046549797058105e+00 9.325543045997619629e-02 5.744419097900390625e-01
-1.264354228973388672e+00 1.004426702857017517e-01 5.765886306762695312e-01
-1.265555024147033691e+00 1.070465072989463806e-01 5.782743096351623535e-01
-1.266783833503723145e+00 1.136194542050361633e-01 5.799421668052673340e-01
-1.268011450767517090e+00 1.201806440949440002e-01 5.816065073013305664e-01
-1.269123554229736328e+00 1.268012970685958862e-01 5.833255052566528320e-01
-1.270230054855346680e+00 1.334126442670822144e-01 5.850431919097900391e-01
-1.271600246429443359e+00 1.398461908102035522e-01 5.866233706474304199e-01
-1.273162245750427246e+00 1.461477130651473999e-01 5.881021022796630859e-01
-1.274716854095458984e+00 1.524429172277450562e-01 5.895813703536987305e-01
-1.276191115379333496e+00 1.587762236595153809e-01 5.910975933074951172e-01
-1.277662754058837891e+00 1.651002913713455200e-01 5.926119685173034668e-01
-1.279681205749511719e+00 1.710752248764038086e-01 5.938463211059570312e-01
-1.281860113143920898e+00 1.769429743289947510e-01 5.949973464012145996e-01
-1.284035086631774902e+00 1.828040480613708496e-01 5.961477160453796387e-01
-1.286207556724548340e+00 1.886578202247619629e-01 5.972964167594909668e-01
-1.288315773010253906e+00 1.945427507162094116e-01 5.984750390052795410e-01
-1.290416240692138672e+00 2.004228085279464722e-01 5.996542572975158691e-01
-1.292513847351074219e+00 2.062958627939224243e-01 6.008325815200805664e-01
-1.294609308242797852e+00 2.121612876653671265e-01 6.020089387893676758e-01
-1.296701550483703613e+00 2.180203050374984741e-01 6.031844019889831543e-01
-1.298826932907104492e+00 2.238501757383346558e-01 6.043403744697570801e-01
-1.301083445549011230e+00 2.295933514833450317e-01 6.054283380508422852e-01
-1.303840279579162598e+00 2.350305020809173584e-01 6.062647700309753418e-01
-1.306714892387390137e+00 2.403914630413055420e-01 6.070407032966613770e-01
-1.309586882591247559e+00 2.457478046417236328e-01 6.078154444694519043e-01
-1.312456965446472168e+00 2.510997354984283447e-01 6.085901856422424316e-01
-1.315323829650878906e+00 2.564481496810913086e-01 6.093643307685852051e-01
-1.318188548088073730e+00 2.617915868759155273e-01 6.101379990577697754e-01
-1.321051597595214844e+00 2.671304941177368164e-01 6.109104156494140625e-01
-1.323911905288696289e+00 2.724651992321014404e-01 6.116827130317687988e-01
-1.326767921447753906e+00 2.777968943119049072e-01 6.124552488327026367e-01
-1.329591274261474609e+00 2.831415534019470215e-01 6.132417321205139160e-01
-1.332412123680114746e+00 2.884815037250518799e-01 6.140279173851013184e-01
-1.335540413856506348e+00 2.936398088932037354e-01 6.146613955497741699e-01
-1.338931322097778320e+00 2.986421883106231689e-01 6.151642799377441406e-01
-1.342320322990417480e+00 3.036419749259948730e-01 6.156669259071350098e-01
-1.345707058906555176e+00 3.086391687393188477e-01 6.161692738533020020e-01
-1.349093079566955566e+00 3.136333227157592773e-01 6.166712641716003418e-01
-1.352476716041564941e+00 3.186253011226654053e-01 6.171730756759643555e-01
-1.355858325958251953e+00 3.236141502857208252e-01 6.176744699478149414e-01
-1.359238624572753906e+00 3.286007046699523926e-01 6.181758642196655273e-01
-1.362617015838623047e+00 3.335849344730377197e-01 6.186769604682922363e-01
-1.365991711616516113e+00 3.385667502880096436e-01 6.191784143447875977e-01
-1.369364857673645020e+00 3.435461819171905518e-01 6.196797490119934082e-01
-1.372736096382141113e+00 3.485228419303894043e-01 6.201804280281066895e-01
-1.376760840415954590e+00 3.531341254711151123e-01 6.203636527061462402e-01
-1.380787134170532227e+00 3.577431142330169678e-01 6.205456852912902832e-01
-1.384812831878662109e+00 3.623511791229248047e-01 6.207273602485656738e-01
-1.388837695121765137e+00 3.669583797454833984e-01 6.209089159965515137e-01
-1.392861247062683105e+00 3.715648353099822998e-01 6.210908293724060059e-01
-1.396884799003601074e+00 3.761700391769409180e-01 6.212723255157470703e-01
-1.400907397270202637e+00 3.807749748229980469e-01 6.214538812637329102e-01
-1.404929280281066895e+00 3.853784501552581787e-01 6.216354966163635254e-01
-1.408950090408325195e+00 3.899808824062347412e-01 6.218169927597045898e-01
-1.412970066070556641e+00 3.945831656455993652e-01 6.219986677169799805e-01
-1.416989684104919434e+00 3.991839289665222168e-01 6.221798062324523926e-01
-1.421659231185913086e+00 4.034358263015747070e-01 6.220499277114868164e-01
-1.426526188850402832e+00 4.075839221477508545e-01 6.218255758285522461e-01
-1.431395053863525391e+00 4.117325544357299805e-01 6.216009259223937988e-01
-1.436264514923095703e+00 4.158816039562225342e-01 6.213757395744323730e-01
-1.441136002540588379e+00 4.200322329998016357e-01 6.211509108543395996e-01
-1.446007847785949707e+00 4.241839051246643066e-01 6.209262013435363770e-01
-1.450880885124206543e+00 4.283367097377777100e-01 6.207016110420227051e-01
-1.455755352973937988e+00 4.324898719787597656e-01 6.204764842987060547e-01
-1.460630774497985840e+00 4.366450607776641846e-01 6.202517747879028320e-01
-1.465507745742797852e+00 4.408001005649566650e-01 6.200264692306518555e-01
-1.470384716987609863e+00 4.449569582939147949e-01 6.198017001152038574e-01
-1.476000785827636719e+00 4.487342238426208496e-01 6.192280054092407227e-01
-1.482743620872497559e+00 4.519363045692443848e-01 6.181231141090393066e-01
-1.489495396614074707e+00 4.551416933536529541e-01 6.170162558555603027e-01
-1.496253848075866699e+00 4.583504796028137207e-01 6.159086823463439941e-01
-1.503021121025085449e+00 4.615643322467803955e-01 6.147999167442321777e-01
-1.509795784950256348e+00 4.647810161113739014e-01 6.136898398399353027e-01
-1.517004609107971191e+00 4.677863121032714844e-01 6.123779416084289551e-01
-1.524601101875305176e+00 4.706050455570220947e-01 6.108871102333068848e-01
-1.532209873199462891e+00 4.734284877777099609e-01 6.093938946723937988e-01
-1.540220022201538086e+00 4.760610163211822510e-01 6.077157258987426758e-01
-1.549400925636291504e+00 4.781207442283630371e-01 6.054935455322265625e-01
-1.558604359626770020e+00 4.801855683326721191e-01 6.032662987709045410e-01
-1.572074651718139648e+00 4.801492989063262939e-01 5.990514159202575684e-01
-1.328829646110534668e+00 -2.138935178518295288e-01 4.511333405971527100e-01
-1.315432071685791016e+00 -1.962592154741287231e-01 4.608508944511413574e-01
-1.306396484375000000e+00 -1.817752867937088013e-01 4.682160913944244385e-01
-1.299334287643432617e+00 -1.687358468770980835e-01 4.745112061500549316e-01
-1.296456694602966309e+00 -1.586777269840240479e-01 4.785619378089904785e-01
-1.293721318244934082e+00 -1.487504094839096069e-01 4.825271964073181152e-01
-1.292372345924377441e+00 -1.398198604583740234e-01 4.857462644577026367e-01
-1.291175603866577148e+00 -1.310202777385711670e-01 4.888769090175628662e-01
-1.290675401687622070e+00 -1.227275878190994263e-01 4.916302263736724854e-01
-1.290917634963989258e+00 -1.149686649441719055e-01 4.939838647842407227e-01
-1.291111707687377930e+00 -1.071951091289520264e-01 4.963574409484863281e-01
-1.292895793914794922e+00 -1.005298867821693420e-01 4.978862106800079346e-01
-1.294728755950927734e+00 -9.391055256128311157e-02 4.993849098682403564e-01
-1.297929883003234863e+00 -8.823578059673309326e-02 5.001596212387084961e-01
-1.302145719528198242e+00 -8.325642347335815430e-02 5.003986954689025879e-01
-1.307577729225158691e+00 -7.910234481096267700e-02 4.999984502792358398e-01
-1.315955400466918945e+00 -7.693435996770858765e-02 4.980539381504058838e-01
-1.282385706901550293e+00 8.989689499139785767e-02 5.608097910881042480e-01
-1.275711536407470703e+00 1.015422567725181580e-01 5.665463805198669434e-01
-1.276145219802856445e+00 1.086431592702865601e-01 5.686345696449279785e-01
-1.276579499244689941e+00 1.157275512814521790e-01 5.707168579101562500e-01
-1.276978850364685059e+00 1.228175014257431030e-01 5.728121995925903320e-01
-1.277124762535095215e+00 1.300512105226516724e-01 5.750315785408020020e-01
-1.277849078178405762e+00 1.369062066078186035e-01 5.769517421722412109e-01
-1.279065012931823730e+00 1.434400379657745361e-01 5.786169171333312988e-01
-1.280245065689086914e+00 1.499832719564437866e-01 5.802962779998779297e-01
-1.281340718269348145e+00 1.565664410591125488e-01 5.820147991180419922e-01
-1.282434821128845215e+00 1.631375104188919067e-01 5.837298631668090820e-01
-1.284065246582031250e+00 1.693648397922515869e-01 5.851694345474243164e-01
-1.286043763160705566e+00 1.753680706024169922e-01 5.864297151565551758e-01
-1.287995815277099609e+00 1.813780218362808228e-01 5.877006053924560547e-01
-1.289869666099548340e+00 1.874262988567352295e-01 5.890076756477355957e-01
-1.291740536689758301e+00 1.934663653373718262e-01 5.903134346008300781e-01
-1.293763756752014160e+00 1.994040310382843018e-01 5.915393829345703125e-01
-1.295930385589599609e+00 2.052458077669143677e-01 5.926900506019592285e-01
-1.298093676567077637e+00 2.110809534788131714e-01 5.938398241996765137e-01
-1.300254702568054199e+00 2.169092893600463867e-01 5.949883460998535156e-01
-1.302347540855407715e+00 2.227695584297180176e-01 5.961681604385375977e-01
-1.304436206817626953e+00 2.286238521337509155e-01 5.973471999168395996e-01
-1.307117700576782227e+00 2.341165691614151001e-01 5.982277393341064453e-01
-1.309963107109069824e+00 2.395047992467880249e-01 5.990240573883056641e-01
-1.312807440757751465e+00 2.448883205652236938e-01 5.998190641403198242e-01
-1.315648674964904785e+00 2.502672374248504639e-01 6.006139516830444336e-01
-1.318488240242004395e+00 2.556421160697937012e-01 6.014078259468078613e-01
-1.321324944496154785e+00 2.610121071338653564e-01 6.022012829780578613e-01
-1.324136853218078613e+00 2.663905024528503418e-01 6.030045151710510254e-01
-1.326937556266784668e+00 2.717702686786651611e-01 6.038125753402709961e-01
-1.329736351966857910e+00 2.771446108818054199e-01 6.046190261840820312e-01
-1.332532286643981934e+00 2.825147211551666260e-01 6.054252982139587402e-01
-1.335325598716735840e+00 2.878805100917816162e-01 6.062307953834533691e-01
-1.338483095169067383e+00 2.930310964584350586e-01 6.068549156188964844e-01
-1.341896772384643555e+00 2.980302274227142334e-01 6.073516011238098145e-01
-1.345309019088745117e+00 3.030262589454650879e-01 6.078474521636962891e-01
-1.348719596862792969e+00 3.080201148986816406e-01 6.083430051803588867e-01
-1.352128267288208008e+00 3.130110800266265869e-01 6.088387370109558105e-01
-1.355525255203247070e+00 3.180049955844879150e-01 6.093387603759765625e-01
-1.358911752700805664e+00 3.230009078979492188e-01 6.098428368568420410e-01
-1.362296223640441895e+00 3.279949426651000977e-01 6.103467345237731934e-01
-1.365678787231445312e+00 3.329864144325256348e-01 6.108504533767700195e-01
-1.369059443473815918e+00 3.379740417003631592e-01 6.113537549972534180e-01
-1.372439503669738770e+00 3.429596722126007080e-01 6.118566989898681641e-01
-1.375903487205505371e+00 3.478942215442657471e-01 6.123170256614685059e-01
-1.380003929138183594e+00 3.524740338325500488e-01 6.124670505523681641e-01
-1.384103536605834961e+00 3.570522665977478027e-01 6.126169562339782715e-01
-1.388202071189880371e+00 3.616306185722351074e-01 6.127672791481018066e-01
-1.392300724983215332e+00 3.662079274654388428e-01 6.129171848297119141e-01
-1.396397352218627930e+00 3.707845509052276611e-01 6.130673885345458984e-01
-1.400495290756225586e+00 3.753596544265747070e-01 6.132169961929321289e-01
-1.404591560363769531e+00 3.799353539943695068e-01 6.133669614791870117e-01
-1.408696651458740234e+00 3.845043182373046875e-01 6.135125160217285156e-01
-1.412802219390869141e+00 3.890723586082458496e-01 6.136571168899536133e-01
-1.416906833648681641e+00 3.936398923397064209e-01 6.138020753860473633e-01
-1.421054005622863770e+00 3.981832265853881836e-01 6.139262318611145020e-01
-1.425945758819580078e+00 4.023278653621673584e-01 6.136922240257263184e-01
-1.430839419364929199e+00 4.064735472202301025e-01 6.134582161903381348e-01
-1.435733675956726074e+00 4.106205105781555176e-01 6.132242679595947266e-01
-1.440629482269287109e+00 4.147680997848510742e-01 6.129896640777587891e-01
-1.445526123046875000e+00 4.189168214797973633e-01 6.127555370330810547e-01
-1.450424551963806152e+00 4.230662584304809570e-01 6.125209331512451172e-01
-1.455554842948913574e+00 4.270965158939361572e-01 6.121764779090881348e-01
-1.460725665092468262e+00 4.311073422431945801e-01 6.118134260177612305e-01
-1.465899109840393066e+00 4.351198375225067139e-01 6.114498376846313477e-01
-1.471074819564819336e+00 4.391338527202606201e-01 6.110860109329223633e-01
-1.476251602172851562e+00 4.431492090225219727e-01 6.107220649719238281e-01
-1.483554482460021973e+00 4.460713863372802734e-01 6.093503236770629883e-01
-1.491109728813171387e+00 4.488734900951385498e-01 6.078620553016662598e-01
-1.498677015304565430e+00 4.516799151897430420e-01 6.063707470893859863e-01
-1.506255984306335449e+00 4.544906616210937500e-01 6.048778295516967773e-01
-1.516728162765502930e+00 4.558398425579071045e-01 6.020210385322570801e-01
-1.528558731079101562e+00 4.565204083919525146e-01 5.985294580459594727e-01
-1.748150348663330078e+00 3.521831929683685303e-01 4.970901608467102051e-01
-1.749431610107421875e+00 3.585728406906127930e-01 4.986897408962249756e-01
-1.753022193908691406e+00 3.637913167476654053e-01 4.992001354694366455e-01
-1.758446693420410156e+00 3.680876791477203369e-01 4.988466203212738037e-01
-1.766047120094299316e+00 3.713007867336273193e-01 4.974724352359771729e-01
-1.778441071510314941e+00 3.721396327018737793e-01 4.938539564609527588e-01
-1.796856522560119629e+00 3.700191080570220947e-01 4.874233007431030273e-01
-1.330174326896667480e+00 -2.140410393476486206e-01 4.434026181697845459e-01
-1.312739372253417969e+00 -1.935494840145111084e-01 4.553211927413940430e-01
-1.301312923431396484e+00 -1.773846447467803955e-01 4.639922380447387695e-01
-1.295248389244079590e+00 -1.650531440973281860e-01 4.697737097740173340e-01
-1.291452646255493164e+00 -1.543568670749664307e-01 4.743278920650482178e-01
-1.288598895072937012e+00 -1.443535089492797852e-01 4.783680140972137451e-01
-1.285991907119750977e+00 -1.345538049936294556e-01 4.822671711444854736e-01
-1.284692287445068359e+00 -1.256918460130691528e-01 4.854604899883270264e-01
-1.283577919006347656e+00 -1.169832870364189148e-01 4.885472953319549561e-01
-1.283067464828491211e+00 -1.087156236171722412e-01 4.913062453269958496e-01
-1.283270835876464844e+00 -1.009597703814506531e-01 4.936795532703399658e-01
-1.284184813499450684e+00 -9.371018409729003906e-02 4.956706762313842773e-01
-1.285998344421386719e+00 -8.709063380956649780e-02 4.971812069416046143e-01
-1.288207888603210449e+00 -8.075306564569473267e-02 4.984785616397857666e-01
-1.290433287620544434e+00 -7.443598657846450806e-02 4.997643828392028809e-01
-1.294216990470886230e+00 -6.918413937091827393e-02 5.002254843711853027e-01
-1.298185229301452637e+00 -6.406080722808837891e-02 5.005885362625122070e-01
-1.304646372795104980e+00 -6.061800569295883179e-02 4.996400177478790283e-01
-1.315320849418640137e+00 -5.999448150396347046e-02 4.964813888072967529e-01
-1.295445561408996582e+00 1.488129496574401855e-01 5.683476328849792480e-01
-1.293025135993957520e+00 1.575852632522583008e-01 5.718650817871093750e-01
-1.293439149856567383e+00 1.645862907171249390e-01 5.739351511001586914e-01
-1.294937372207641602e+00 1.709064692258834839e-01 5.754504203796386719e-01
-1.296434402465820312e+00 1.772158890962600708e-01 5.769627690315246582e-01
-1.297890782356262207e+00 1.835388988256454468e-01 5.784920454025268555e-01
-1.299136281013488770e+00 1.899786144495010376e-01 5.801247954368591309e-01
-1.300434947013854980e+00 1.963738054037094116e-01 5.817263126373291016e-01
-1.302400708198547363e+00 2.023540288209915161e-01 5.829877853393554688e-01
-1.304364085197448730e+00 2.083259671926498413e-01 5.842476487159729004e-01
-1.306316494941711426e+00 2.142952829599380493e-01 5.855099558830261230e-01
-1.308174252510070801e+00 2.203118950128555298e-01 5.868169069290161133e-01
-1.310030937194824219e+00 2.263198792934417725e-01 5.881215333938598633e-01
-1.312526226043701172e+00 2.319377660751342773e-01 5.891029238700866699e-01
-1.315313935279846191e+00 2.373748421669006348e-01 5.899354815483093262e-01
-1.318098902702331543e+00 2.428074479103088379e-01 5.907674431800842285e-01
-1.320881247520446777e+00 2.482353597879409790e-01 5.915989279747009277e-01
-1.323661327362060547e+00 2.536588609218597412e-01 5.924292802810668945e-01
-1.326411604881286621e+00 2.590933740139007568e-01 5.932732820510864258e-01
-1.329148292541503906e+00 2.645299434661865234e-01 5.941215157508850098e-01
-1.331883192062377930e+00 2.699612677097320557e-01 5.949690341949462891e-01
-1.334614634513854980e+00 2.753879427909851074e-01 5.958161354064941406e-01
-1.337344527244567871e+00 2.808088362216949463e-01 5.966617465019226074e-01
-1.340071439743041992e+00 2.862260639667510986e-01 5.975070595741271973e-01
-1.343255400657653809e+00 2.913742661476135254e-01 5.981245636940002441e-01
-1.346727490425109863e+00 2.963529527187347412e-01 5.985976457595825195e-01
-1.350197076797485352e+00 3.013293445110321045e-01 5.990715026855468750e-01
-1.353655934333801270e+00 3.063088953495025635e-01 5.995493531227111816e-01
-1.357080459594726562e+00 3.113039135932922363e-01 6.000428795814514160e-01
-1.360502362251281738e+00 3.162970244884490967e-01 6.005364656448364258e-01
-1.363922953605651855e+00 3.212870955467224121e-01 6.010301113128662109e-01
-1.367341995239257812e+00 3.262747228145599365e-01 6.015228629112243652e-01
-1.370759010314941406e+00 3.312596678733825684e-01 6.020157337188720703e-01
-1.374174475669860840e+00 3.362419605255126953e-01 6.025077700614929199e-01
-1.377588033676147461e+00 3.412214517593383789e-01 6.030000448226928711e-01
-1.381244063377380371e+00 3.460638225078582764e-01 6.033729314804077148e-01
-1.385473966598510742e+00 3.505852520465850830e-01 6.034646630287170410e-01
-1.389703512191772461e+00 3.551058471202850342e-01 6.035560965538024902e-01
-1.393933176994323730e+00 3.596266508102416992e-01 6.036472320556640625e-01
-1.398161768913269043e+00 3.641467094421386719e-01 6.037389636039733887e-01
-1.402389883995056152e+00 3.686664402484893799e-01 6.038305759429931641e-01
-1.406617403030395508e+00 3.731861412525177002e-01 6.039225459098815918e-01
-1.410859942436218262e+00 3.776966631412506104e-01 6.040064096450805664e-01
-1.415101885795593262e+00 3.822071850299835205e-01 6.040912270545959473e-01
-1.419343829154968262e+00 3.867171108722686768e-01 6.041750907897949219e-01
-1.423585176467895508e+00 3.912264704704284668e-01 6.042597293853759766e-01
-1.428233861923217773e+00 3.955176472663879395e-01 6.041472554206848145e-01
-1.433437943458557129e+00 3.995122909545898438e-01 6.037669777870178223e-01
-1.438644647598266602e+00 4.035089910030364990e-01 6.033869981765747070e-01
-1.443853259086608887e+00 4.075067341327667236e-01 6.030064225196838379e-01
-1.450421333312988281e+00 4.107881784439086914e-01 6.019735932350158691e-01
-1.457149147987365723e+00 4.139931201934814453e-01 6.008663177490234375e-01
-1.463881373405456543e+00 4.172035157680511475e-01 5.997598171234130859e-01
-1.470272541046142578e+00 4.206005036830902100e-01 5.988185405731201172e-01
-1.476604580879211426e+00 4.240347445011138916e-01 5.979080796241760254e-01
-1.786000013351440430e+00 2.697767615318298340e-01 4.521996676921844482e-01
-1.776941418647766113e+00 2.817189097404479980e-01 4.587990641593933105e-01
-1.768585205078125000e+00 2.932509183883666992e-01 4.650491774082183838e-01
-1.759078264236450195e+00 3.053318858146667480e-01 4.718335270881652832e-01
-1.749445915222167969e+00 3.174299895763397217e-01 4.786629378795623779e-01
-1.743594884872436523e+00 3.275431096553802490e-01 4.836792647838592529e-01
-1.738156914710998535e+00 3.374106287956237793e-01 4.884896278381347656e-01
-1.735985398292541504e+00 3.455837070941925049e-01 4.917402267456054688e-01
-1.733726620674133301e+00 3.537779152393341064e-01 4.950253963470458984e-01
-1.733474493026733398e+00 3.609347939491271973e-01 4.973537325859069824e-01
-1.734238862991333008e+00 3.675636351108551025e-01 4.991966485977172852e-01
-1.737824440002441406e+00 3.727634549140930176e-01 4.997042119503021240e-01
-1.742684006690979004e+00 3.773222267627716064e-01 4.996093213558197021e-01
-1.749565839767456055e+00 3.808734118938446045e-01 4.985626935958862305e-01
-1.759361386299133301e+00 3.829834461212158203e-01 4.961474239826202393e-01
-1.774186253547668457e+00 3.826192617416381836e-01 4.913742542266845703e-01
-1.808991670608520508e+00 3.724224865436553955e-01 4.772317111492156982e-01
-1.310511946678161621e+00 -1.911686062812805176e-01 4.495409429073333740e-01
-1.297183990478515625e+00 -1.736674159765243530e-01 4.592637717723846436e-01
-1.291842460632324219e+00 -1.618489027023315430e-01 4.646757245063781738e-01
-1.287294149398803711e+00 -1.506288498640060425e-01 4.696484506130218506e-01
-1.283612847328186035e+00 -1.400527209043502808e-01 4.741448462009429932e-01
-1.280882239341735840e+00 -1.301735043525695801e-01 4.781216979026794434e-01
-1.278304934501647949e+00 -1.204316914081573486e-01 4.820068180561065674e-01
-1.277118682861328125e+00 -1.116823405027389526e-01 4.851403236389160156e-01
-1.276035189628601074e+00 -1.030285730957984924e-01 4.882111847400665283e-01
-1.276359796524047852e+00 -9.536648541688919067e-02 4.905253052711486816e-01
-1.277391672134399414e+00 -8.820701390504837036e-02 4.924578070640563965e-01
-1.278423190116882324e+00 -8.106285333633422852e-02 4.943853318691253662e-01
-1.279552698135375977e+00 -7.400009781122207642e-02 4.962568879127502441e-01
-1.281716108322143555e+00 -6.765382736921310425e-02 4.975761473178863525e-01
-1.283938169479370117e+00 -6.135768070816993713e-02 4.988605380058288574e-01
-1.286329507827758789e+00 -5.518607050180435181e-02 5.000530481338500977e-01
-1.290367364883422852e+00 -5.013100430369377136e-02 5.003738403320312500e-01
-1.294064760208129883e+00 -4.484997689723968506e-02 5.008730888366699219e-01
-1.301005244255065918e+00 -4.174215346574783325e-02 4.996644258499145508e-01
-1.313471198081970215e+00 -4.230824857950210571e-02 4.955548346042633057e-01
-1.336898922920227051e+00 2.327486723661422729e-01 5.749117136001586914e-01
-1.336807608604431152e+00 2.399089187383651733e-01 5.771984457969665527e-01
-1.335360527038574219e+00 2.478474080562591553e-01 5.801585912704467773e-01
-1.337983250617980957e+00 2.533829808235168457e-01 5.810770988464355469e-01
-1.340603828430175781e+00 2.589130997657775879e-01 5.819948315620422363e-01
-1.343220472335815430e+00 2.644375860691070557e-01 5.829117298126220703e-01
-1.345836043357849121e+00 2.699565887451171875e-01 5.838273167610168457e-01
-1.348376274108886719e+00 2.755123376846313477e-01 5.847786068916320801e-01
-1.350895524024963379e+00 2.810732424259185791e-01 5.857377052307128906e-01
-1.354085683822631836e+00 2.862419784069061279e-01 5.863615274429321289e-01
-1.357733130455017090e+00 2.911441624164581299e-01 5.867577791213989258e-01
-1.361380338668823242e+00 2.960440516471862793e-01 5.871527194976806641e-01
-1.365024805068969727e+00 3.009418249130249023e-01 5.875479578971862793e-01
-1.368668913841247559e+00 3.058373332023620605e-01 5.879426002502441406e-01
-1.372309923171997070e+00 3.107315897941589355e-01 5.883378386497497559e-01
-1.375949978828430176e+00 3.156237304210662842e-01 5.887326598167419434e-01
-1.379588842391967773e+00 3.205131888389587402e-01 5.891272425651550293e-01
-1.383226752281188965e+00 3.254007101058959961e-01 5.895212292671203613e-01
-1.386862158775329590e+00 3.302868306636810303e-01 5.899156332015991211e-01
-1.390463113784790039e+00 3.351888358592987061e-01 5.903258919715881348e-01
-1.394731760025024414e+00 3.397180736064910889e-01 5.904080867767333984e-01
-1.819630146026611328e+00 2.315998375415802002e-01 4.223087728023529053e-01
-1.805912494659423828e+00 2.461329251527786255e-01 4.312180280685424805e-01
-1.795334577560424805e+00 2.589650750160217285e-01 4.386010169982910156e-01
-1.782420158386230469e+00 2.729597687721252441e-01 4.470877945423126221e-01
-1.772768616676330566e+00 2.852034866809844971e-01 4.539927244186401367e-01
-1.762910366058349609e+00 2.975052297115325928e-01 4.609814584255218506e-01
-1.748164534568786621e+00 3.122751414775848389e-01 4.702899158000946045e-01
-1.738593101501464844e+00 3.243231475353240967e-01 4.771080613136291504e-01
-1.731526851654052734e+00 3.350415527820587158e-01 4.827171564102172852e-01
-1.725170373916625977e+00 3.453592061996459961e-01 4.879757761955261230e-01
-1.720728635787963867e+00 3.546665310859680176e-01 4.923115670680999756e-01
-1.717664361000061035e+00 3.632451891899108887e-01 4.959835112094879150e-01
-1.717553377151489258e+00 3.703072667121887207e-01 4.982455372810363770e-01
-1.719479084014892578e+00 3.763285875320434570e-01 4.995373487472534180e-01
-1.723080039024353027e+00 3.815005719661712646e-01 5.000327229499816895e-01
-1.728909969329833984e+00 3.855539560317993164e-01 4.994727671146392822e-01
-1.735801339149475098e+00 3.890829682350158691e-01 4.984124004840850830e-01
-1.745301246643066406e+00 3.913234472274780273e-01 4.961227178573608398e-01
-1.755530714988708496e+00 3.932184576988220215e-01 4.934940636157989502e-01
-1.776371717453002930e+00 3.898957669734954834e-01 4.858735501766204834e-01
-1.311771035194396973e+00 -1.912491619586944580e-01 4.418765306472778320e-01
-1.295736074447631836e+00 -1.718377470970153809e-01 4.530947208404541016e-01
-1.289070844650268555e+00 -1.590901762247085571e-01 4.592387080192565918e-01
-1.283873915672302246e+00 -1.474181860685348511e-01 4.645776450634002686e-01
-1.279422163963317871e+00 -1.363077014684677124e-01 4.695027768611907959e-01
-1.275812745094299316e+00 -1.258223652839660645e-01 4.739636778831481934e-01
-1.273209929466247559e+00 -1.160694062709808350e-01 4.778741002082824707e-01
-1.270673155784606934e+00 -1.063928827643394470e-01 4.817395508289337158e-01
-1.270730495452880859e+00 -9.853423386812210083e-02 4.842084348201751709e-01
-1.270837664604187012e+00 -9.072875231504440308e-02 4.866448044776916504e-01
-1.270980119705200195e+00 -8.296703547239303589e-02 4.890561401844024658e-01
-1.271650314331054688e+00 -7.558477669954299927e-02 4.911804795265197754e-01
-1.272685050964355469e+00 -6.846658140420913696e-02 4.931058585643768311e-01
-1.273818612098693848e+00 -6.143097206950187683e-02 4.949739277362823486e-01
-1.275253057479858398e+00 -5.461302772164344788e-02 4.966774880886077881e-01
-1.277473449707031250e+00 -4.833863303065299988e-02 4.979605972766876221e-01
-1.279706835746765137e+00 -4.208286851644515991e-02 4.992339015007019043e-01
-1.282589435577392578e+00 -3.627216443419456482e-02 5.001602172851562500e-01
-1.286279201507568359e+00 -3.100909851491451263e-02 5.006582736968994141e-01
-1.290087461471557617e+00 -2.582791447639465332e-02 5.010924935340881348e-01
-1.296883344650268555e+00 -2.263536676764488220e-02 4.999526143074035645e-01
-1.309643864631652832e+00 -2.338465861976146698e-02 4.956765472888946533e-01
-1.813471913337707520e+00 2.435016334056854248e-01 4.206876158714294434e-01
-1.798899292945861816e+00 2.584291696548461914e-01 4.300239980220794678e-01
-1.781392574310302734e+00 2.748160660266876221e-01 4.407508373260498047e-01
-1.769721865653991699e+00 2.881045937538146973e-01 4.486502408981323242e-01
-1.755954861640930176e+00 3.024194538593292236e-01 4.575376510620117188e-01
-1.738608956336975098e+00 3.185141682624816895e-01 4.681210517883300781e-01
-1.727782487869262695e+00 3.311900496482849121e-01 4.755596518516540527e-01
-1.716743946075439453e+00 3.439226746559143066e-01 4.830829203128814697e-01
-1.707763791084289551e+00 3.555531799793243408e-01 4.896057546138763428e-01
-1.703863859176635742e+00 3.645579814910888672e-01 4.936898648738861084e-01
-1.701807022094726562e+00 3.726010620594024658e-01 4.968861937522888184e-01
-1.701784729957580566e+00 3.795949220657348633e-01 4.991070330142974854e-01
-1.704816460609436035e+00 3.850372135639190674e-01 4.998696148395538330e-01
-1.708438396453857422e+00 3.901783227920532227e-01 5.003507137298583984e-01
-1.715230941772460938e+00 3.937317430973052979e-01 4.993258118629455566e-01
-1.722427248954772949e+00 3.970912098884582520e-01 4.981113374233245850e-01
-1.732574582099914551e+00 3.989944159984588623e-01 4.955021739006042480e-01
-1.743958711624145508e+00 4.003035426139831543e-01 4.923131763935089111e-01
-1.758397221565246582e+00 4.001286923885345459e-01 4.876886904239654541e-01
-1.295482397079467773e+00 -1.708481460809707642e-01 4.462749660015106201e-01
-1.287678241729736328e+00 -1.572980135679244995e-01 4.530568122863769531e-01
-1.281030297279357910e+00 -1.446109563112258911e-01 4.591976702213287354e-01
-1.275947332382202148e+00 -1.330624520778656006e-01 4.644799828529357910e-01
-1.271590709686279297e+00 -1.220606639981269836e-01 4.693579077720642090e-01
-1.268124341964721680e+00 -1.117141544818878174e-01 4.737447500228881836e-01
-1.266705632209777832e+00 -1.028172150254249573e-01 4.770210087299346924e-01
-1.265926122665405273e+00 -9.438554942607879639e-02 4.799465537071228027e-01
-1.265546679496765137e+00 -8.625105768442153931e-02 4.826508760452270508e-01
-1.265659809112548828e+00 -7.847604155540466309e-02 4.850840270519256592e-01
-1.265811324119567871e+00 -7.074589282274246216e-02 4.874913990497589111e-01
-1.265999078750610352e+00 -6.305868923664093018e-02 4.898730814456939697e-01
-1.266969799995422363e+00 -5.592113733291625977e-02 4.918315410614013672e-01
-1.268107533454895020e+00 -4.891255497932434082e-02 4.936961233615875244e-01
-1.269248366355895996e+00 -4.191979393362998962e-02 4.955549240112304688e-01
-1.271036982536315918e+00 -3.537668660283088684e-02 4.970648884773254395e-01
-1.273498296737670898e+00 -2.929664589464664459e-02 4.982141554355621338e-01
-1.276070952415466309e+00 -2.330022677779197693e-02 4.993014633655548096e-01
-1.278951048851013184e+00 -1.751614920794963837e-02 5.002238750457763672e-01
-1.282769799232482910e+00 -1.236276794224977493e-02 5.006476640701293945e-01
-1.286601185798645020e+00 -7.221512496471405029e-03 5.010638833045959473e-01
-1.292212247848510742e+00 -3.257454605773091316e-03 5.005404353141784668e-01
-1.299021959304809570e+00 -7.897530304035171866e-05 4.993872344493865967e-01
-1.810440182685852051e+00 2.537405490875244141e-01 4.175730347633361816e-01
-1.783367395401000977e+00 2.751140594482421875e-01 4.329602718353271484e-01
-1.767457008361816406e+00 2.906003594398498535e-01 4.429316222667694092e-01
-1.748210549354553223e+00 3.077377974987030029e-01 4.544874429702758789e-01
-1.731471538543701172e+00 3.235052525997161865e-01 4.648116230964660645e-01
-1.712282657623291016e+00 3.404559791088104248e-01 4.762896597385406494e-01
-1.699304342269897461e+00 3.541536331176757812e-01 4.847618043422698975e-01
-1.691326260566711426e+00 3.652445971965789795e-01 4.908183813095092773e-01
-1.686724066734313965e+00 3.745806515216827393e-01 4.952450394630432129e-01
-1.686114430427551270e+00 3.818647563457489014e-01 4.977518618106842041e-01
-1.686647534370422363e+00 3.885555863380432129e-01 4.997078776359558105e-01
-1.690265297889709473e+00 3.936820328235626221e-01 5.001872181892395020e-01
-1.694788455963134766e+00 3.983514904975891113e-01 5.002332925796508789e-01
-1.701680302619934082e+00 4.018381834030151367e-01 4.991521537303924561e-01
-1.709799766540527344e+00 4.047209918498992920e-01 4.974890947341918945e-01
-1.720031261444091797e+00 4.065677225589752197e-01 4.948258101940155029e-01
-1.732582688331604004e+00 4.072859585285186768e-01 4.910675287246704102e-01
-1.746940135955810547e+00 4.071395993232727051e-01 4.864615499973297119e-01
-1.767591595649719238e+00 4.039342701435089111e-01 4.788842797279357910e-01
-1.296812653541564941e+00 -1.709715873003005981e-01 4.385859072208404541e-01
-1.287542462348937988e+00 -1.563873291015625000e-01 4.461884796619415283e-01
-1.279663920402526855e+00 -1.428366601467132568e-01 4.530185461044311523e-01
-1.273033618927001953e+00 -1.302091181278228760e-01 4.591563940048217773e-01
-1.268119335174560547e+00 -1.188222095370292664e-01 4.643519222736358643e-01
-1.264306068420410156e+00 -1.082386672496795654e-01 4.689402580261230469e-01
-1.262821555137634277e+00 -9.929942339658737183e-02 4.722628295421600342e-01
-1.262045502662658691e+00 -9.087454527616500854e-02 4.751953482627868652e-01
-1.261275172233581543e+00 -8.247574418783187866e-02 4.781174361705780029e-01
-1.260557770729064941e+00 -7.413572818040847778e-02 4.810043275356292725e-01
-1.260501861572265625e+00 -6.626980006694793701e-02 4.835293292999267578e-01
-1.260660886764526367e+00 -5.856991931796073914e-02 4.859324395656585693e-01
-1.260855436325073242e+00 -5.091235414147377014e-02 4.883108437061309814e-01
-1.261278748512268066e+00 -4.342804104089736938e-02 4.905619919300079346e-01
-1.262420415878295898e+00 -3.644538670778274536e-02 4.924233853816986084e-01
-1.264136910438537598e+00 -2.986309677362442017e-02 4.939740896224975586e-01
-1.265877962112426758e+00 -2.330961637198925018e-02 4.955078661441802979e-01
-1.267970085144042969e+00 -1.700261048972606659e-02 4.968514144420623779e-01
-1.270540118217468262e+00 -1.102375146001577377e-02 4.979379177093505859e-01
-1.273096799850463867e+00 -5.044397432357072830e-03 4.990288615226745605e-01
-1.275622844696044922e+00 9.463301976211369038e-04 5.001330971717834473e-01
-1.279299855232238770e+00 6.169723812490701675e-03 5.006257891654968262e-01
-1.283133864402770996e+00 1.128627452999353409e-02 5.010347366333007812e-01
-1.287570357322692871e+00 1.600390300154685974e-02 5.011245012283325195e-01
-1.294329643249511719e+00 1.920278556644916534e-02 4.999895691871643066e-01
-1.806455850601196289e+00 2.644548416137695312e-01 4.149310588836669922e-01
-1.769547343254089355e+00 2.908433377742767334e-01 4.351050555706024170e-01
-1.740808486938476562e+00 3.128771185874938965e-01 4.512878656387329102e-01
-1.718275666236877441e+00 3.316080272197723389e-01 4.644389152526855469e-01
-1.692469358444213867e+00 3.519244194030761719e-01 4.791392683982849121e-01
-1.681016921997070312e+00 3.648083209991455078e-01 4.868959486484527588e-01
-1.671856164932250977e+00 3.764717876911163330e-01 4.935331344604492188e-01
-1.668883085250854492e+00 3.849494159221649170e-01 4.971824586391448975e-01
-1.668881535530090332e+00 3.918996155261993408e-01 4.993982613086700439e-01
-1.672200798988342285e+00 3.971605300903320312e-01 5.000170469284057617e-01
-1.675804615020751953e+00 4.022743105888366699e-01 5.004982352256774902e-01
-1.681990504264831543e+00 4.060914516448974609e-01 4.997434914112091064e-01
-1.688401937484741211e+00 4.098019003868103027e-01 4.988822638988494873e-01
-1.697336673736572266e+00 4.122630953788757324e-01 4.968193173408508301e-01
-1.707551479339599609e+00 4.141037166118621826e-01 4.941502213478088379e-01
-1.721235275268554688e+00 4.142485558986663818e-01 4.898347854614257812e-01
-1.737062692642211914e+00 4.133680462837219238e-01 4.845099449157714844e-01
-1.757302999496459961e+00 4.103571176528930664e-01 4.770994782447814941e-01
-1.303995013236999512e+00 -1.752086579799652100e-01 4.276933968067169189e-01
-1.288914561271667480e+00 -1.565328985452651978e-01 4.384899437427520752e-01
-1.279386758804321289e+00 -1.418226510286331177e-01 4.462424814701080322e-01
-1.271680951118469238e+00 -1.284432709217071533e-01 4.529862105846405029e-01
-1.265079021453857422e+00 -1.158835962414741516e-01 4.591147005558013916e-01
-1.261927008628845215e+00 -1.057601869106292725e-01 4.633609056472778320e-01
-1.260210156440734863e+00 -9.666152298450469971e-02 4.668202996253967285e-01
-1.258497953414916992e+00 -8.759313821792602539e-02 4.702684879302978516e-01
-1.257401585578918457e+00 -7.897311449050903320e-02 4.733759164810180664e-01
-1.256640672683715820e+00 -7.060734182596206665e-02 4.762950241565704346e-01
-1.255931258201599121e+00 -6.229929625988006592e-02 4.791789054870605469e-01
-1.255362868309020996e+00 -5.410965159535408020e-02 4.819802343845367432e-01
-1.255531191825866699e+00 -4.644083231687545776e-02 4.843790233135223389e-01
-1.255730986595153809e+00 -3.881173208355903625e-02 4.867556691169738770e-01
-1.256768226623535156e+00 -3.176555410027503967e-02 4.886770844459533691e-01
-1.258026599884033203e+00 -2.488216385245323181e-02 4.904761314392089844e-01
-1.259773731231689453e+00 -1.834043487906455994e-02 4.920096397399902344e-01
-1.261518359184265137e+00 -1.180900633335113525e-02 4.935410916805267334e-01
-1.263237714767456055e+00 -5.272278096526861191e-03 4.950815141201019287e-01
-1.265031337738037109e+00 1.203857245855033398e-03 4.965792894363403320e-01
-1.267596960067749023e+00 7.157184649258852005e-03 4.976630806922912598e-01
-1.270128965377807617e+00 1.312476489692926407e-02 4.987616539001464844e-01
-1.272650361061096191e+00 1.909083686769008636e-02 4.998635649681091309e-01
-1.275852441787719727e+00 2.460198849439620972e-02 5.006021261215209961e-01
-1.279683113098144531e+00 2.969712018966674805e-02 5.010060667991638184e-01
-1.283569216728210449e+00 3.475256264209747314e-02 5.013802051544189453e-01
-1.289599537849426270e+00 3.841305524110794067e-02 5.006223917007446289e-01
-1.296290278434753418e+00 4.165147244930267334e-02 4.995182156562805176e-01
-1.779585003852844238e+00 2.869789600372314453e-01 4.234065413475036621e-01
-1.734114646911621094e+00 3.176480829715728760e-01 4.477591514587402344e-01
-1.692780017852783203e+00 3.460230231285095215e-01 4.700547754764556885e-01
-1.669856667518615723e+00 3.648151457309722900e-01 4.833974838256835938e-01
-1.654319882392883301e+00 3.797450065612792969e-01 4.931417405605316162e-01
-1.651228427886962891e+00 3.882764577865600586e-01 4.968591928482055664e-01
-1.651482105255126953e+00 3.950860500335693359e-01 4.989563524723052979e-01
-1.654232144355773926e+00 4.006195962429046631e-01 4.998463988304138184e-01
-1.657827973365783691e+00 4.057207405567169189e-01 5.003281831741333008e-01
-1.663452982902526855e+00 4.097997546195983887e-01 4.998333752155303955e-01
-1.669832468032836914e+00 4.135047793388366699e-01 4.989779889583587646e-01
-1.677474737167358398e+00 4.165858924388885498e-01 4.975190460681915283e-01
-1.686235427856445312e+00 4.191213846206665039e-01 4.955281615257263184e-01
-1.695752501487731934e+00 4.212953150272369385e-01 4.931793510913848877e-01
-1.709915041923522949e+00 4.211923182010650635e-01 4.886166453361511230e-01
-1.727366566658020020e+00 4.195015728473663330e-01 4.824943840503692627e-01
-1.750108957290649414e+00 4.152573645114898682e-01 4.738630354404449463e-01
-1.295537948608398438e+00 -1.603571176528930664e-01 4.279099702835083008e-01
-1.281057476997375488e+00 -1.421693265438079834e-01 4.383952915668487549e-01
-1.271275639533996582e+00 -1.273369938135147095e-01 4.462953507900238037e-01
-1.263726472854614258e+00 -1.141163855791091919e-01 4.529613852500915527e-01
-1.260316371917724609e+00 -1.038135737180709839e-01 4.573630392551422119e-01
-1.257835388183593750e+00 -9.418645501136779785e-02 4.612494707107543945e-01
-1.256127476692199707e+00 -8.512134104967117310e-02 4.647067487239837646e-01
-1.254424810409545898e+00 -7.608649879693984985e-02 4.681533873081207275e-01
-1.252774357795715332e+00 -6.711424142122268677e-02 4.715628623962402344e-01
-1.252022981643676758e+00 -5.878107249736785889e-02 4.744786620140075684e-01
-1.251320719718933105e+00 -5.050417780876159668e-02 4.773604273796081543e-01
-1.250621080398559570e+00 -4.225109517574310303e-02 4.802337884902954102e-01
-1.251112103462219238e+00 -3.482397273182868958e-02 4.824603497982025146e-01
-1.252206802368164062e+00 -2.782130986452102661e-02 4.843563735485076904e-01
-1.253299713134765625e+00 -2.083201520144939423e-02 4.862490594387054443e-01
-1.254383444786071777e+00 -1.385089196264743805e-02 4.881416261196136475e-01
-1.255451917648315430e+00 -6.873965263366699219e-03 4.900380074977874756e-01
-1.257170200347900391e+00 -3.439034044276922941e-04 4.915823638439178467e-01
-1.258903741836547852e+00 6.163721904158592224e-03 4.931148886680603027e-01
-1.260610342025756836e+00 1.267778314650058746e-02 4.946579039096832275e-01
-1.262315273284912109e+00 1.918157376348972321e-02 4.961978197097778320e-01
-1.264657258987426758e+00 2.525418810546398163e-02 4.973953962326049805e-01
-1.267177104949951172e+00 3.120187856256961823e-02 4.984959363937377930e-01
-1.270009398460388184e+00 3.693663701415061951e-02 4.994273781776428223e-01
-1.272917389869689941e+00 4.261505231261253357e-02 5.003165602684020996e-01
-1.276874661445617676e+00 4.760589078068733215e-02 5.006482005119323730e-01
-1.280895352363586426e+00 5.255276709794998169e-02 5.009452104568481445e-01
-1.284923434257507324e+00 5.749285593628883362e-02 5.012382268905639648e-01
-1.291337132453918457e+00 6.089591234922409058e-02 5.002720355987548828e-01
-1.301108717918395996e+00 6.215253099799156189e-02 4.975390136241912842e-01
-1.733121991157531738e+00 3.194799423217773438e-01 4.414716362953186035e-01
-1.651922106742858887e+00 3.683111667633056641e-01 4.832067787647247314e-01
-1.637319445610046387e+00 3.827720880508422852e-01 4.925345778465270996e-01
-1.633668780326843262e+00 3.915827572345733643e-01 4.965343177318572998e-01
-1.634169340133666992e+00 3.982555568218231201e-01 4.985154867172241211e-01
