-8.726557493209838867e-01 -6.576298177242279053e-02 6.073051691055297852e-01
6.475490331649780273e-01 1.438271850347518921e-01 6.386919617652893066e-01
7.936130166053771973e-01 1.333429217338562012e-01 6.157691478729248047e-01
3.669212460517883301e-01 4.252479076385498047e-01 5.476212501525878906e-01
3.532182872295379639e-01 4.783847332000732422e-01 5.945110917091369629e-01
1.768706738948822021e-02 -5.797262191772460938e-01 6.645271778106689453e-01
-3.352912366390228271e-01 3.454946577548980713e-01 4.242814779281616211e-01
-3.371365666389465332e-01 3.050549030303955078e-01 4.582257568836212158e-01
-1.990628838539123535e-01 -8.322576880455017090e-01 6.907371878623962402e-01
-8.675628900527954102e-02 -5.259347558021545410e-01 6.028475165367126465e-01
-7.037443667650222778e-02 8.809967637062072754e-01 7.787796258926391602e-01
9.802277684211730957e-01 -6.366192549467086792e-02 6.333500146865844727e-01
1.882962882518768311e-01 8.254981637001037598e-01 7.370589971542358398e-01
1.018104434013366699e+00 -1.656416207551956177e-01 6.266158223152160645e-01
-1.227485388517379761e-01 2.587756216526031494e-01 5.816214084625244141e-01
3.888725638389587402e-01 3.079433739185333252e-01 4.855340421199798584e-01
2.736720442771911621e-01 2.418127506971359253e-01 6.286872625350952148e-01
-6.301398873329162598e-01 1.195933744311332703e-01 5.733770132064819336e-01
3.145478665828704834e-01 -5.103047490119934082e-01 6.096289157867431641e-01
4.965510964393615723e-01 -4.956472814083099365e-01 6.208503842353820801e-01
-8.925355672836303711e-01 -1.777572780847549438e-01 5.990758538246154785e-01
2.175480276346206665e-01 2.640836238861083984e-01 5.911272168159484863e-01
3.831042647361755371e-01 -4.084576666355133057e-01 4.545633196830749512e-01
8.088529109954833984e-01 8.027214556932449341e-02 6.375989317893981934e-01
-4.202893972396850586e-01 -5.198754668235778809e-01 6.660867333412170410e-01
-4.461620151996612549e-01 -4.765871465206146240e-01 6.189177632331848145e-01
-5.656463503837585449e-01 1.832002550363540649e-01 5.352615118026733398e-01
-3.023426830768585205e-01 -5.776907205581665039e-01 5.327403545379638672e-01
3.130527436733245850e-01 -8.101211190223693848e-01 6.101469993591308594e-01
4.042549431324005127e-01 -5.019322633743286133e-01 6.146892905235290527e-01
-4.104208052158355713e-01 -1.760053932666778564e-01 4.339313507080078125e-01
8.018589615821838379e-01 -4.618992507457733154e-01 6.210053563117980957e-01
2.447322607040405273e-01 7.490389347076416016e-01 7.389023900032043457e-01
1.012091189622879028e-01 2.502939105033874512e-01 6.197680830955505371e-01
3.648731410503387451e-01 4.298381507396697998e-01 5.661410093307495117e-01
-7.691019177436828613e-01 -4.063286483287811279e-01 6.340619325637817383e-01
4.625189006328582764e-01 1.751384735107421875e-01 6.456691622734069824e-01
9.729177355766296387e-01 -3.930579125881195068e-01 6.153227090835571289e-01
7.635266780853271484e-01 1.537545174360275269e-01 6.000386476516723633e-01
2.447870224714279175e-01 2.341192066669464111e-01 6.367006301879882812e-01
2.492434531450271606e-01 6.697835326194763184e-01 7.277218103408813477e-01
3.690122365951538086e-01 -4.861898124217987061e-01 4.753512740135192871e-01
-7.353863716125488281e-01 -4.180033206939697266e-01 6.272788643836975098e-01
-7.496095895767211914e-01 -4.042214155197143555e-01 6.001216769218444824e-01
-3.889335393905639648e-01 1.666980981826782227e-01 4.403205513954162598e-01
2.621743083000183105e-01 2.515306472778320312e-01 6.163321733474731445e-01
-3.977182507514953613e-01 -9.841819107532501221e-02 4.273166358470916748e-01
-2.525041699409484863e-01 -5.031957030296325684e-01 6.267210245132446289e-01
3.282287418842315674e-01 6.023419499397277832e-01 6.397519707679748535e-01
9.621605873107910156e-01 1.788187026977539062e-02 6.125442385673522949e-01
-3.286668062210083008e-01 -3.329787850379943848e-01 4.197529852390289307e-01
-3.424256145954132080e-01 -4.247930645942687988e-01 4.836376607418060303e-01
-4.052541553974151611e-01 -4.872756004333496094e-01 6.416513323783874512e-01
8.429487943649291992e-01 1.175222098827362061e-01 5.921137332916259766e-01
2.153965234756469727e-01 2.403916716575622559e-01 6.329948902130126953e-01
3.852815032005310059e-01 -4.063164293766021729e-01 4.499226808547973633e-01
3.215194642543792725e-01 -5.159698128700256348e-01 6.348719000816345215e-01
2.202186882495880127e-01 7.957384586334228516e-01 7.112427353858947754e-01
-2.172904759645462036e-01 -5.092349648475646973e-01 6.297404170036315918e-01
2.408955097198486328e-01 2.587715387344360352e-01 5.811299681663513184e-01
4.071518778800964355e-01 -2.604880332946777344e-01 4.242583215236663818e-01
3.594305813312530518e-01 4.584144353866577148e-01 5.537642836570739746e-01
1.041988611221313477e+00 -1.725882440805435181e-01 6.230489611625671387e-01
-2.666000723838806152e-01 2.505806088447570801e-01 5.341752767562866211e-01
4.647753834724426270e-01 2.195509821176528931e-01 6.143562197685241699e-01
-8.069153875112533569e-02 8.642071485519409180e-01 8.051880598068237305e-01
-8.716253042221069336e-01 -3.063515424728393555e-01 5.584973096847534180e-01
-5.431883782148361206e-02 2.787519097328186035e-01 5.562325119972229004e-01
1.896129548549652100e-01 8.184079527854919434e-01 7.610837817192077637e-01
2.955784201622009277e-01 6.554358601570129395e-01 6.213232278823852539e-01
3.722220361232757568e-01 -3.417379260063171387e-01 4.646132886409759521e-01
-7.421115040779113770e-01 1.143979579210281372e-01 5.521386265754699707e-01
-3.403738439083099365e-01 3.223919868469238281e-01 4.766781926155090332e-01
4.276935160160064697e-01 2.230882197618484497e-01 6.227156519889831543e-01
3.268608152866363525e-01 -7.668354511260986328e-01 5.852834582328796387e-01
-9.461871981620788574e-01 -1.013936325907707214e-01 6.061881184577941895e-01
-2.755828499794006348e-01 -5.020241141319274902e-01 6.065127253532409668e-01
2.418317645788192749e-01 -5.191400051116943359e-01 6.238779425621032715e-01
-2.587324380874633789e-02 -5.423399806022644043e-01 6.497992277145385742e-01
3.118543028831481934e-01 -7.102139592170715332e-01 5.872167944908142090e-01
1.050491034984588623e-01 -9.257465600967407227e-01 7.665507197380065918e-01
5.858379006385803223e-01 -4.791742265224456787e-01 5.883476138114929199e-01
7.336210459470748901e-02 8.767052888870239258e-01 7.572318315505981445e-01
-1.410446316003799438e-01 -9.071776270866394043e-01 7.766301631927490234e-01
-1.362404376268386841e-01 -5.776400566101074219e-01 6.660676002502441406e-01
-2.414898127317428589e-01 -7.627338171005249023e-01 6.396906375885009766e-01
-3.737936019897460938e-01 -4.349889978766441345e-02 4.105114340782165527e-01
7.553693652153015137e-01 1.461072117090225220e-01 6.208506822586059570e-01
-3.302483558654785156e-01 -4.561668336391448975e-01 4.904596209526062012e-01
3.287574350833892822e-01 -5.323907136917114258e-01 5.121477246284484863e-01
-3.550651073455810547e-01 1.709693670272827148e-01 5.827280879020690918e-01
-8.767536878585815430e-01 -1.003789007663726807e-01 6.016455888748168945e-01
-5.053099393844604492e-01 -4.922065138816833496e-01 6.549814343452453613e-01
4.715338349342346191e-02 -5.546162128448486328e-01 6.573900580406188965e-01
1.386036276817321777e-01 -9.286071658134460449e-01 7.756919264793395996e-01
-3.163435161113739014e-01 2.271848917007446289e-01 5.683589577674865723e-01
3.086662590503692627e-01 5.135659575462341309e-01 6.467443704605102539e-01
-3.466545045375823975e-01 -4.203495085239410400e-01 4.837128520011901855e-01
1.011394143104553223e+00 -3.076841495931148529e-02 5.791345238685607910e-01
-3.503195345401763916e-01 2.792573869228363037e-01 4.616914391517639160e-01
9.617344141006469727e-01 -2.866149544715881348e-01 5.814852714538574219e-01
3.340197727084159851e-02 2.801320850849151611e-01 5.745492577552795410e-01
7.409957051277160645e-02 2.750980556011199951e-01 5.892019867897033691e-01
1.026660323143005371e+00 -2.116899937391281128e-01 6.266494393348693848e-01
5.006831884384155273e-01 2.139019668102264404e-01 5.817139148712158203e-01
-8.221094012260437012e-01 3.959210216999053955e-02 5.851857066154479980e-01
-8.977448344230651855e-01 -4.641396552324295044e-02 6.054757833480834961e-01
-1.861904710531234741e-01 -5.189111232757568359e-01 6.431888341903686523e-01
-7.395316958427429199e-01 3.052026405930519104e-02 5.702902078628540039e-01
-4.962420761585235596e-01 -5.181065201759338379e-01 6.630086302757263184e-01
-7.375360727310180664e-01 6.185632571578025818e-02 5.815566182136535645e-01
-3.739679157733917236e-01 -1.003229096531867981e-01 4.154719114303588867e-01
9.715151041746139526e-02 8.610597848892211914e-01 8.029676079750061035e-01
3.425261378288269043e-02 -9.390904903411865234e-01 7.733408808708190918e-01
1.142962425947189331e-01 8.339209556579589844e-01 8.092591166496276855e-01
3.871862590312957764e-01 2.368738502264022827e-01 5.996239781379699707e-01
3.587322533130645752e-01 4.640215039253234863e-01 5.790365934371948242e-01
3.676943778991699219e-01 -1.697113960981369019e-01 4.587739706039428711e-01
1.251474767923355103e-01 2.663762271404266357e-01 6.065918207168579102e-01
-5.787614583969116211e-01 1.392656862735748291e-01 5.726414322853088379e-01
-2.642168700695037842e-01 1.838887482881546021e-01 5.841247439384460449e-01
3.553502494469285011e-03 2.685289084911346436e-01 5.271193981170654297e-01
7.328367829322814941e-01 1.276060789823532104e-01 6.358253955841064453e-01
-3.391504585742950439e-01 -2.919342219829559326e-01 4.242047667503356934e-01
2.537796199321746826e-01 2.573452591896057129e-01 5.860151052474975586e-01
-4.389609098434448242e-01 2.050689458847045898e-01 5.516573786735534668e-01
3.518373072147369385e-01 2.152445167303085327e-01 6.444858312606811523e-01
-7.822804450988769531e-01 -4.276740252971649170e-01 6.506273150444030762e-01
-8.848063945770263672e-01 -2.538976669311523438e-01 6.047917008399963379e-01
1.883112937211990356e-01 7.351253032684326172e-01 7.671475410461425781e-01
1.064013242721557617e+00 -2.020447403192520142e-01 6.083922982215881348e-01
-3.101359307765960693e-01 -4.450637400150299072e-01 4.403589665889739990e-01
1.919148415327072144e-01 8.215905427932739258e-01 7.475773096084594727e-01
1.041331410408020020e+00 -2.504576742649078369e-01 6.215303540229797363e-01
-6.962724924087524414e-01 -4.422987103462219238e-01 6.384995579719543457e-01
3.906443119049072266e-01 -1.763641834259033203e-01 4.531776905059814453e-01
7.210928201675415039e-01 -5.154830813407897949e-01 6.270024776458740234e-01
-2.395034730434417725e-01 -5.077108144760131836e-01 6.034195423126220703e-01
-2.261664122343063354e-01 -5.111554861068725586e-01 6.001517176628112793e-01
2.219673544168472290e-01 7.867071032524108887e-01 6.971744894981384277e-01
9.221433401107788086e-01 -3.599922955036163330e-01 5.961369872093200684e-01
6.173429489135742188e-01 -4.998173415660858154e-01 6.288322210311889648e-01
-1.091101393103599548e-01 8.433877229690551758e-01 8.068873286247253418e-01
2.504924535751342773e-01 -8.790483474731445312e-01 6.997644305229187012e-01
1.011394143104553223e+00 -3.076841495931148529e-02 5.791345238685607910e-01
-7.249435875564813614e-03 8.591153621673583984e-01 8.221558928489685059e-01
-7.175101637840270996e-01 -4.273503422737121582e-01 6.298746466636657715e-01
2.935233414173126221e-01 -5.063730478286743164e-01 4.957982301712036133e-01
3.856640458106994629e-01 2.836449742317199707e-01 5.144033432006835938e-01
-3.961859941482543945e-01 -2.885182499885559082e-01 4.520816206932067871e-01
2.428189069032669067e-01 7.471385598182678223e-01 7.425653934478759766e-01
-7.272194027900695801e-01 -4.188834130764007568e-01 6.227661967277526855e-01
3.198309838771820068e-01 4.459117352962493896e-01 6.160057783126831055e-01
1.525177061557769775e-01 2.717120349407196045e-01 5.906078815460205078e-01
-2.219345867633819580e-01 2.597803473472595215e-01 5.428980588912963867e-01
-2.678833901882171631e-01 -5.025783181190490723e-01 6.088546514511108398e-01
-5.563709139823913574e-02 8.519366979598999023e-01 8.209345936775207520e-01
3.682863712310791016e-01 2.001996934413909912e-01 5.103369951248168945e-01
-1.843077689409255981e-01 -8.531127572059631348e-01 6.889076232910156250e-01
-6.970888972282409668e-01 5.775722116231918335e-02 5.677813887596130371e-01
9.978584200143814087e-02 -5.444366931915283203e-01 5.772315263748168945e-01
3.077142834663391113e-01 -7.062416076660156250e-01 5.871573686599731445e-01
1.129065528512001038e-01 8.639867901802062988e-01 7.846113443374633789e-01
9.753885269165039062e-01 -8.897901512682437897e-03 6.229389905929565430e-01
-9.229409508407115936e-03 8.838463425636291504e-01 7.944911718368530273e-01
4.742924869060516357e-01 1.588895320892333984e-01 6.437668800354003906e-01
2.895877696573734283e-02 2.534556090831756592e-01 6.097286939620971680e-01
-2.580119967460632324e-01 6.190266013145446777e-01 6.587350964546203613e-01
9.500868320465087891e-01 -3.191846609115600586e-01 5.910136699676513672e-01
9.857322573661804199e-01 -3.540272116661071777e-01 6.202337741851806641e-01
-3.607703149318695068e-01 -2.032879143953323364e-01 4.220069646835327148e-01
-2.810054123401641846e-01 5.731863379478454590e-01 6.255007982254028320e-01
-8.971588015556335449e-01 -2.744822800159454346e-01 6.284711956977844238e-01
3.279245197772979736e-01 -7.100142240524291992e-01 5.738854408264160156e-01
2.968542277812957764e-01 5.908482074737548828e-01 6.812934279441833496e-01
1.027761816978454590e+00 -5.385391786694526672e-02 5.872129797935485840e-01
-3.058976531028747559e-01 5.483677387237548828e-01 6.176484823226928711e-01
3.422508537769317627e-01 -4.637273252010345459e-01 4.928456544876098633e-01
2.240966409444808960e-01 -8.736359477043151855e-01 7.119923830032348633e-01
2.165323197841644287e-01 7.527626752853393555e-01 7.655057311058044434e-01
4.207496941089630127e-01 4.869558662176132202e-02 4.165629744529724121e-01
-8.950313329696655273e-01 -2.895160019397735596e-01 6.313071250915527344e-01
3.952588438987731934e-01 -2.384283095598220825e-01 4.476011097431182861e-01
-7.920578122138977051e-01 4.020063206553459167e-02 5.887783169746398926e-01
-5.874191522598266602e-01 -4.590672850608825684e-01 5.998194813728332520e-01
3.371489942073822021e-01 2.423299103975296021e-01 6.151601672172546387e-01
2.419884353876113892e-01 -5.259066820144653320e-01 6.402105689048767090e-01
-8.495006561279296875e-01 -3.325972557067871094e-01 6.117721796035766602e-01
5.430768132209777832e-01 1.911144405603408813e-01 6.304738521575927734e-01
8.981164693832397461e-01 3.611302003264427185e-02 6.358677744865417480e-01
3.060742914676666260e-01 2.107862532138824463e-01 6.465881466865539551e-01
3.210513293743133545e-01 3.934761881828308105e-01 5.932181477546691895e-01
1.234084293246269226e-01 8.621478676795959473e-01 7.725031375885009766e-01
2.084145396947860718e-01 2.191635817289352417e-01 6.389170885086059570e-01
-3.952822685241699219e-01 1.907963007688522339e-01 4.473210275173187256e-01
3.863717615604400635e-01 -4.244556725025177002e-01 4.365296363830566406e-01
-3.006759881973266602e-01 -4.967794120311737061e-01 4.730663895606994629e-01
4.665280226618051529e-03 -9.614365696907043457e-01 8.153172135353088379e-01
3.805982470512390137e-01 2.166581749916076660e-01 6.399754285812377930e-01
4.185976088047027588e-01 9.353149682283401489e-02 4.300349950790405273e-01
4.177218079566955566e-01 -5.015116930007934570e-01 6.198249459266662598e-01
3.516630232334136963e-01 -4.877097904682159424e-01 4.935292005538940430e-01
5.251353979110717773e-01 1.788442134857177734e-01 6.400097608566284180e-01
-2.352704703807830811e-01 -8.343217968940734863e-01 7.186387777328491211e-01
1.856119558215141296e-02 -5.295366644859313965e-01 6.117604374885559082e-01
2.503841221332550049e-01 7.550869584083557129e-01 7.226707339286804199e-01
1.738248020410537720e-01 7.913357615470886230e-01 7.901486158370971680e-01
-1.804324537515640259e-01 -8.574683070182800293e-01 6.953203678131103516e-01
3.022316396236419678e-01 -5.648200511932373047e-01 5.218045115470886230e-01
-3.189442753791809082e-01 4.050770103931427002e-01 4.621984064579010010e-01
-2.249815016984939575e-01 -8.214726448059082031e-01 6.132404208183288574e-01
9.114009141921997070e-01 5.876505002379417419e-02 6.190791130065917969e-01
-8.554532527923583984e-01 -3.560248017311096191e-02 6.025845408439636230e-01
1.318816095590591431e-01 7.799316048622131348e-01 7.993447184562683105e-01
-5.580375790596008301e-01 -5.095918774604797363e-01 6.600122451782226562e-01
2.965843677520751953e-01 -7.630606889724731445e-01 6.206644177436828613e-01
-2.628883421421051025e-01 -7.142994999885559082e-01 6.082956790924072266e-01
2.422937452793121338e-01 7.654949426651000977e-01 7.290573716163635254e-01
8.315489292144775391e-01 1.245674118399620056e-01 5.844138860702514648e-01
3.490098714828491211e-01 5.138377547264099121e-01 5.974743366241455078e-01
-3.156045377254486084e-01 -5.647422671318054199e-01 5.326358079910278320e-01
3.726432621479034424e-01 -2.055140882730484009e-01 4.582598507404327393e-01
9.886931180953979492e-01 -3.689167648553848267e-02 6.272630691528320312e-01
2.602333724498748779e-01 2.566749453544616699e-01 5.943415164947509766e-01
-2.792306244373321533e-01 -7.754245996475219727e-01 6.705548167228698730e-01
-1.272695809602737427e-01 2.545945644378662109e-01 5.842766165733337402e-01
-3.353159129619598389e-01 -3.310118913650512695e-01 4.384211301803588867e-01
2.172899059951305389e-02 8.871331810951232910e-01 7.716190814971923828e-01
-5.889528393745422363e-01 -5.049813389778137207e-01 6.586862802505493164e-01
1.923204362392425537e-01 7.495462298393249512e-01 7.749816775321960449e-01
-7.172588706016540527e-01 -4.624374508857727051e-01 6.529387831687927246e-01
-2.399326264858245850e-01 -7.953529357910156250e-01 6.829833984375000000e-01
1.420166641473770142e-01 -5.745499730110168457e-01 6.637428998947143555e-01
5.893543958663940430e-01 1.960064023733139038e-01 5.733726024627685547e-01
3.177944421768188477e-01 4.768577516078948975e-01 6.288686394691467285e-01
-3.343705832958221436e-01 -4.603609144687652588e-01 4.943300485610961914e-01
-4.981677234172821045e-02 -9.366549253463745117e-01 7.942251563072204590e-01
2.581096589565277100e-01 -7.407388687133789062e-01 6.023547053337097168e-01
6.472831368446350098e-01 1.731336116790771484e-01 5.549611449241638184e-01
3.814326822757720947e-01 -3.659957051277160645e-01 4.584502875804901123e-01
-7.211281657218933105e-01 -4.218803346157073975e-01 6.237113475799560547e-01
2.570208311080932617e-01 7.002711296081542969e-01 7.336229681968688965e-01
4.887662455439567566e-02 2.674070298671722412e-01 5.334404706954956055e-01
8.758350014686584473e-01 3.753991797566413879e-02 6.374663710594177246e-01
7.772891521453857422e-01 1.446687728166580200e-01 5.682328939437866211e-01
9.174225330352783203e-01 -7.890975102782249451e-03 6.357150077819824219e-01
3.656663298606872559e-01 -1.227441281080245972e-01 4.591860473155975342e-01
4.001015126705169678e-01 2.111536860466003418e-01 4.877856373786926270e-01
1.464943587779998779e-01 2.731538712978363037e-01 5.827735662460327148e-01
-5.467265099287033081e-02 -5.317878723144531250e-01 6.373533606529235840e-01
-2.727701961994171143e-01 5.690537095069885254e-01 6.033946871757507324e-01
3.274730145931243896e-01 -7.286390066146850586e-01 5.798454880714416504e-01
1.220151185989379883e-01 -5.381543636322021484e-01 6.442542076110839844e-01
-3.780912160873413086e-01 -4.951575994491577148e-01 5.884628295898437500e-01
-6.034809350967407227e-01 -4.841757118701934814e-01 6.539391279220581055e-01
3.329952359199523926e-01 -5.605411529541015625e-01 6.600520610809326172e-01
4.163267314434051514e-01 1.150408014655113220e-01 4.511577486991882324e-01
6.896217465400695801e-01 -4.631483554840087891e-01 5.752461552619934082e-01
4.790616221725940704e-03 2.745960652828216553e-01 5.846045613288879395e-01
-3.329573571681976318e-01 -5.520988702774047852e-01 6.701138019561767578e-01
1.017428278923034668e+00 -4.813921824097633362e-02 6.074951291084289551e-01
-6.463790535926818848e-01 -4.460375010967254639e-01 5.988984704017639160e-01
1.018905401229858398e+00 -4.696970060467720032e-02 6.031385064125061035e-01
2.764238119125366211e-01 -8.783642649650573730e-01 6.704292297363281250e-01
-8.608878850936889648e-01 -3.529271483421325684e-01 6.427410244941711426e-01
8.833202719688415527e-01 8.249305188655853271e-02 6.170474886894226074e-01
-3.651498258113861084e-02 -9.560699462890625000e-01 7.412399053573608398e-01
1.614853143692016602e-01 -5.276737213134765625e-01 6.301286816596984863e-01
1.813576221466064453e-01 7.862567305564880371e-01 7.859265804290771484e-01
8.785581588745117188e-01 -4.372958838939666748e-01 6.211860179901123047e-01
2.467378526926040649e-01 7.387561798095703125e-01 7.406094670295715332e-01
-3.542900085449218750e-01 -3.327665925025939941e-01 4.579961299896240234e-01
2.978739738464355469e-01 5.793687701225280762e-01 6.766675710678100586e-01
1.097111701965332031e-01 -9.222175478935241699e-01 7.500543594360351562e-01
1.392571330070495605e-01 -9.552227258682250977e-01 7.868124842643737793e-01
1.168945953249931335e-01 -5.519805550575256348e-01 6.566168069839477539e-01
3.892351984977722168e-01 1.925794929265975952e-01 4.983744323253631592e-01
-4.861374795436859131e-01 -4.817797243595123291e-01 6.443490982055664062e-01
9.778860807418823242e-01 -2.816103100776672363e-01 6.081262826919555664e-01
7.368156909942626953e-01 1.642215698957443237e-01 5.868133902549743652e-01
1.049096465110778809e+00 -9.569956362247467041e-02 5.887724161148071289e-01
-5.118546485900878906e-01 -4.899989366531372070e-01 6.536470651626586914e-01
3.152094483375549316e-01 -7.977517247200012207e-01 6.087684631347656250e-01
-7.331085205078125000e-01 -4.337058961391448975e-01 6.433844566345214844e-01
2.422937452793121338e-01 7.654949426651000977e-01 7.290573716163635254e-01
-3.564641177654266357e-01 -1.481119990348815918e-01 3.700422346591949463e-01
-6.713330149650573730e-01 1.085633635520935059e-01 5.746169090270996094e-01
3.968037664890289307e-01 2.516010701656341553e-01 4.928901791572570801e-01
8.688024878501892090e-01 -4.180161952972412109e-01 6.134215593338012695e-01
1.066575884819030762e+00 -1.596573442220687866e-01 5.611091256141662598e-01
2.952260375022888184e-01 2.491248995065689087e-01 5.885008573532104492e-01
-2.942531704902648926e-01 -7.202162146568298340e-01 6.298742890357971191e-01
-5.089775323867797852e-01 -4.695915877819061279e-01 6.211636662483215332e-01
-3.028383553028106689e-01 -7.115771174430847168e-01 6.232379078865051270e-01
-3.448626697063446045e-01 -2.549857795238494873e-01 4.154281914234161377e-01
3.114159405231475830e-01 6.106169819831848145e-01 6.745738387107849121e-01
1.049759149551391602e+00 -1.224849000573158264e-01 6.103083491325378418e-01
-8.703480362892150879e-01 -3.356427252292633057e-01 6.383401751518249512e-01
-3.892322480678558350e-01 -3.408942371606826782e-02 4.215571880340576172e-01
8.108459711074829102e-01 1.312849670648574829e-01 6.059938669204711914e-01
2.953568100929260254e-01 6.757676601409912109e-01 6.911137700080871582e-01
3.162868022918701172e-01 -7.406820058822631836e-01 5.971373319625854492e-01
8.773335814476013184e-01 6.908217817544937134e-02 6.303433179855346680e-01
-9.029802680015563965e-01 -9.125649929046630859e-02 6.162398457527160645e-01
2.685413658618927002e-01 -5.270234346389770508e-01 5.805116295814514160e-01
-2.430573701858520508e-01 -5.118541717529296875e-01 5.943269729614257812e-01
-3.757939636707305908e-01 -2.141555584967136383e-02 4.115865230560302734e-01
3.466528281569480896e-02 8.390870094299316406e-01 8.257693648338317871e-01
-5.788913369178771973e-01 -4.863622188568115234e-01 6.541022658348083496e-01
-2.228202819824218750e-01 -5.145719051361083984e-01 6.456220746040344238e-01
3.967373371124267578e-01 1.763877570629119873e-01 6.470154523849487305e-01
3.695289790630340576e-01 3.312203884124755859e-01 5.464136004447937012e-01
2.126821428537368774e-01 -9.329824447631835938e-01 7.402613162994384766e-01
1.061037421226501465e+00 -1.269934028387069702e-01 5.909472107887268066e-01
3.328857719898223877e-01 -3.713240921497344971e-01 4.748046696186065674e-01
5.240769982337951660e-01 2.114844918251037598e-01 5.968453288078308105e-01
-8.338122963905334473e-01 -3.623656332492828369e-01 6.345440745353698730e-01
-3.425538241863250732e-01 -2.696988582611083984e-01 4.176011085510253906e-01
-2.505615353584289551e-01 2.507865428924560547e-01 5.218026638031005859e-01
3.888034820556640625e-01 -4.031794965267181396e-01 4.398263692855834961e-01
3.584508895874023438e-01 3.966677486896514893e-01 5.069379210472106934e-01
-3.045141696929931641e-01 4.888796508312225342e-01 5.643602013587951660e-01
3.826538622379302979e-01 3.302690386772155762e-01 5.167556405067443848e-01
8.225232362747192383e-01 1.294157654047012329e-01 5.937218070030212402e-01
1.070398807525634766e+00 -2.540987730026245117e-01 5.703291893005371094e-01
4.761089384555816650e-01 -5.111363530158996582e-01 6.378593444824218750e-01
3.318267762660980225e-01 5.868665575981140137e-01 6.343225240707397461e-01
3.796420693397521973e-01 -5.284318327903747559e-01 6.512665748596191406e-01
2.322399467229843140e-01 7.551953196525573730e-01 7.521168589591979980e-01
2.148137539625167847e-01 7.688403725624084473e-01 7.663956880569458008e-01
3.245566487312316895e-01 2.155204862356185913e-01 6.447051763534545898e-01
6.206784248352050781e-01 1.874101459980010986e-01 5.665419101715087891e-01
5.118274688720703125e-01 2.115640938282012939e-01 5.798863768577575684e-01
7.330266833305358887e-01 1.350266039371490479e-01 6.336576938629150391e-01
-3.702923059463500977e-01 -4.012291878461837769e-02 4.064769446849822998e-01
8.385394811630249023e-01 9.452193975448608398e-02 6.297633051872253418e-01
5.852107405662536621e-01 1.666462421417236328e-01 6.382158398628234863e-01
-3.808893859386444092e-01 -3.076893389225006104e-01 4.574493169784545898e-01
5.112528800964355469e-01 -4.931697845458984375e-01 5.722813010215759277e-01
1.698748022317886353e-02 -5.304085016250610352e-01 6.236841082572937012e-01
5.581819415092468262e-01 1.967871487140655518e-01 5.652704834938049316e-01
-4.564020633697509766e-01 2.067825943231582642e-01 5.330651402473449707e-01
3.267146944999694824e-01 -5.788655281066894531e-01 5.257277488708496094e-01
-2.857718467712402344e-01 2.162605524063110352e-01 5.820154547691345215e-01
-3.605869412422180176e-01 1.506813913583755493e-01 3.661558926105499268e-01
8.243554085493087769e-02 -5.372442603111267090e-01 5.864685773849487305e-01
3.182916939258575439e-01 6.173311471939086914e-01 6.641781330108642578e-01
9.252083301544189453e-01 -3.627055883407592773e-01 6.021101474761962891e-01
7.540243864059448242e-01 9.391953796148300171e-02 6.358081102371215820e-01
-7.378472685813903809e-01 -4.204760491847991943e-01 6.325097680091857910e-01
-3.836228847503662109e-01 -1.341507136821746826e-01 4.258804321289062500e-01
-8.939284831285476685e-02 -5.269768238067626953e-01 6.337975859642028809e-01
-8.699644207954406738e-01 -1.055150404572486877e-01 5.416644215583801270e-01
-4.179136455059051514e-01 1.543279439210891724e-01 5.786487460136413574e-01
3.792838454246520996e-01 2.843544185161590576e-01 5.236456990242004395e-01
-3.321487605571746826e-01 2.131184637546539307e-01 5.757676362991333008e-01
-7.585640549659729004e-01 -4.138727486133575439e-01 6.349664330482482910e-01
8.592478632926940918e-01 5.407692119479179382e-02 6.374433636665344238e-01
3.422972559928894043e-01 3.527100682258605957e-01 5.729498863220214844e-01
8.276061713695526123e-02 2.687121629714965820e-01 6.020165681838989258e-01
-1.645222455263137817e-01 -8.868453502655029297e-01 6.912953257560729980e-01
-3.326261341571807861e-01 -4.995430409908294678e-01 6.476861834526062012e-01
-3.618466854095458984e-01 -2.211598455905914307e-01 4.284527003765106201e-01
-3.117344081401824951e-01 2.397142499685287476e-01 5.499436259269714355e-01
3.005530536174774170e-01 -5.235668420791625977e-01 6.431800127029418945e-01
3.205320537090301514e-01 4.132317900657653809e-01 6.017768383026123047e-01
8.539375662803649902e-01 1.099761575460433960e-01 5.993607044219970703e-01
3.551165759563446045e-01 -5.192869901657104492e-01 4.953650832176208496e-01
-1.305941343307495117e-01 -5.623673200607299805e-01 6.663876175880432129e-01
7.427479028701782227e-01 -4.931603074073791504e-01 6.264102458953857422e-01
-9.229838252067565918e-01 -8.325621485710144043e-02 6.124674081802368164e-01
-2.001190185546875000e-01 6.990619897842407227e-01 7.191237807273864746e-01
-2.014525234699249268e-01 2.171037942171096802e-01 5.897896289825439453e-01
9.544676542282104492e-01 3.524336218833923340e-02 5.947210788726806641e-01
3.519349694252014160e-01 -5.098719596862792969e-01 5.924029350280761719e-01
-8.387256264686584473e-01 -3.460941016674041748e-01 5.700643062591552734e-01
8.666761517524719238e-01 9.147355705499649048e-02 6.190573573112487793e-01
2.406758666038513184e-01 6.801744103431701660e-01 7.339052557945251465e-01
2.820517122745513916e-01 2.428001314401626587e-01 5.683593153953552246e-01
-6.399023532867431641e-01 1.617900878190994263e-01 5.199828147888183594e-01
-8.520776033401489258e-02 -5.307091474533081055e-01 6.403535008430480957e-01
1.796087622642517090e-01 8.271603584289550781e-01 7.658262848854064941e-01
3.158663809299468994e-01 -7.233372330665588379e-01 5.903616547584533691e-01
6.939532607793807983e-02 8.679223060607910156e-01 8.047109842300415039e-01
-8.511512875556945801e-01 -3.248898983001708984e-01 6.000620722770690918e-01
-3.594120740890502930e-01 -9.334023296833038330e-02 3.698037266731262207e-01
1.921543776988983154e-01 2.676221728324890137e-01 5.877971053123474121e-01
-3.418503403663635254e-01 2.528936862945556641e-01 4.221904277801513672e-01
9.517127871513366699e-01 -4.073270559310913086e-01 6.176391839981079102e-01
-2.773689627647399902e-01 -6.155111789703369141e-01 5.081405043601989746e-01
-1.447415351867675781e-01 2.610832154750823975e-01 5.738574266433715820e-01
1.206641271710395813e-01 -9.188680648803710938e-01 7.417149543762207031e-01
-9.224439263343811035e-01 -2.216808050870895386e-01 6.300985217094421387e-01
-3.199102357029914856e-02 -5.405930280685424805e-01 6.483465433120727539e-01
3.996980488300323486e-01 -2.592546641826629639e-01 4.406564235687255859e-01
3.819022178649902344e-01 1.549877524375915527e-01 4.961510598659515381e-01
6.375979632139205933e-02 8.629204034805297852e-01 8.107770085334777832e-01
4.511618316173553467e-01 -5.013682246208190918e-01 6.261455416679382324e-01
-1.476350985467433929e-02 -9.486233592033386230e-01 8.071300387382507324e-01
4.611912667751312256e-01 2.091753631830215454e-01 6.311690807342529297e-01
6.342425346374511719e-01 1.908027976751327515e-01 5.972089767456054688e-01
-4.981677234172821045e-02 -9.366549253463745117e-01 7.942251563072204590e-01
3.953425586223602295e-01 -3.620060682296752930e-01 4.210726022720336914e-01
-3.435857295989990234e-01 -2.878309488296508789e-01 4.308598637580871582e-01
6.307711005210876465e-01 -4.991775751113891602e-01 6.282274127006530762e-01
2.096094042062759399e-01 8.008355498313903809e-01 7.515441179275512695e-01
-3.641261756420135498e-01 -4.199665784835815430e-02 3.947381675243377686e-01
-8.273719251155853271e-02 2.754718363285064697e-01 5.372041463851928711e-01
3.988699018955230713e-01 -1.505000889301300049e-01 4.490196406841278076e-01
1.406842768192291260e-01 8.394267559051513672e-01 7.912384867668151855e-01
3.087630867958068848e-02 2.336918711662292480e-01 6.145061850547790527e-01
3.817375302314758301e-01 -4.009979069232940674e-01 4.570431709289550781e-01
1.388842612504959106e-01 8.316287994384765625e-01 7.976649999618530273e-01
7.018392533063888550e-02 -9.651166200637817383e-01 8.077687621116638184e-01
-1.683580875396728516e-01 -8.764160871505737305e-01 7.453870177268981934e-01
7.169176340103149414e-01 -4.701796174049377441e-01 6.133772730827331543e-01
4.136227965354919434e-01 -2.110460847616195679e-01 4.165829122066497803e-01
8.321592807769775391e-01 1.206535324454307556e-01 6.053748726844787598e-01
7.717447876930236816e-01 -4.472515881061553955e-01 6.029065847396850586e-01
2.082357108592987061e-01 7.226918339729309082e-01 7.596830129623413086e-01
8.116347193717956543e-01 1.259724795818328857e-01 6.151026487350463867e-01
-7.251942753791809082e-01 -4.163104593753814697e-01 6.039270162582397461e-01
-5.400391817092895508e-01 -4.653724730014801025e-01 6.193935275077819824e-01
-8.308809995651245117e-02 2.657843232154846191e-01 5.819075107574462891e-01
1.493591964244842529e-01 2.611553370952606201e-01 6.143941879272460938e-01
3.891768157482147217e-01 -5.603228807449340820e-01 6.555033922195434570e-01
-3.570423126220703125e-01 -1.744481921195983887e-01 4.072317481040954590e-01
2.389798164367675781e-01 7.500362396240234375e-01 6.664687395095825195e-01
-3.491172492504119873e-01 1.955951303243637085e-01 4.089514017105102539e-01
8.278210163116455078e-01 -4.274971187114715576e-01 6.043138504028320312e-01
1.051680803298950195e+00 -1.205594614148139954e-01 6.064794063568115234e-01
1.113937795162200928e-01 2.749778628349304199e-01 5.867086052894592285e-01
-3.816242814064025879e-01 1.730508953332901001e-01 4.391899704933166504e-01
2.688450217247009277e-01 -8.978490829467773438e-01 6.743105053901672363e-01
-2.006447687745094299e-02 -5.790256857872009277e-01 6.650177836418151855e-01
-3.045141696929931641e-01 4.888796508312225342e-01 5.643602013587951660e-01
-8.924705386161804199e-01 -3.384940624237060547e-01 6.443701386451721191e-01
3.778426349163055420e-01 -4.318822324275970459e-01 4.621393382549285889e-01
3.176457583904266357e-01 6.364421248435974121e-01 6.449726223945617676e-01
-4.100418686866760254e-01 2.159710675477981567e-01 5.348905324935913086e-01
4.096477925777435303e-01 1.160766482353210449e-01 4.668818712234497070e-01
4.238239526748657227e-01 2.245785146951675415e-01 5.754604935646057129e-01
7.291734218597412109e-01 1.376835107803344727e-01 6.331175565719604492e-01
-5.794602632522583008e-01 1.799675822257995605e-01 5.290389657020568848e-01
3.766648173332214355e-01 -2.681499421596527100e-01 4.588649868965148926e-01
1.100443229079246521e-01 8.608644604682922363e-01 7.925843000411987305e-01
-7.125342488288879395e-01 -4.218923151493072510e-01 6.061122417449951172e-01
2.599788904190063477e-01 -8.775465488433837891e-01 6.906707882881164551e-01
4.519483149051666260e-01 1.995298266410827637e-01 6.401644349098205566e-01
9.855660200119018555e-01 -2.935262918472290039e-01 6.177265644073486328e-01
-7.916476130485534668e-01 -4.363101720809936523e-01 6.520060300827026367e-01
-1.020798757672309875e-01 2.707188427448272705e-01 5.702307820320129395e-01
-2.957883775234222412e-01 5.441524386405944824e-01 6.080543994903564453e-01
-1.480909287929534912e-01 2.210852503776550293e-01 5.935289263725280762e-01
1.609157919883728027e-01 8.394476771354675293e-01 7.257635593414306641e-01
1.062540769577026367e+00 -1.274263262748718262e-01 5.801376700401306152e-01
-7.679155468940734863e-02 -9.494084119796752930e-01 7.313742637634277344e-01
9.657381772994995117e-01 1.344708143733441830e-03 6.232147812843322754e-01
5.637501478195190430e-01 1.854341477155685425e-01 6.313840746879577637e-01
-2.642168700695037842e-01 1.838887482881546021e-01 5.841247439384460449e-01
-2.890306413173675537e-01 -5.732373595237731934e-01 5.117323994636535645e-01
-3.307777643203735352e-01 3.339883983135223389e-01 4.342359602451324463e-01
-1.151257306337356567e-01 8.662316203117370605e-01 7.760054469108581543e-01
1.012643337249755859e+00 -4.602817818522453308e-02 6.118361353874206543e-01
7.785693407058715820e-01 1.471268832683563232e-01 5.756893754005432129e-01
2.962601184844970703e-01 6.579989790916442871e-01 6.944466829299926758e-01
3.844853937625885010e-01 2.896067500114440918e-01 5.165961980819702148e-01
9.706597328186035156e-01 -3.340300321578979492e-01 6.166070699691772461e-01
3.536603748798370361e-01 2.142971903085708618e-01 5.160786509513854980e-01
4.409941285848617554e-02 8.018952608108520508e-01 8.145066499710083008e-01
3.858332335948944092e-01 -9.945344924926757812e-02 4.592070877552032471e-01
3.646724224090576172e-01 -5.269712209701538086e-01 4.832736849784851074e-01
7.447228431701660156e-01 1.604249477386474609e-01 6.000419259071350098e-01
3.362595736980438232e-01 5.728644728660583496e-01 6.075201034545898438e-01
9.341573119163513184e-01 4.986651241779327393e-02 5.694541335105895996e-01
2.865265607833862305e-01 -7.486391067504882812e-01 6.158158779144287109e-01
-3.156045377254486084e-01 -5.647422671318054199e-01 5.326358079910278320e-01
8.861163854598999023e-01 -4.018687009811401367e-01 6.098133325576782227e-01
4.760544598102569580e-01 -4.964221417903900146e-01 6.189614534378051758e-01
-3.504089713096618652e-01 -1.926843672990798950e-01 3.892728984355926514e-01
1.028218626976013184e+00 -2.263921201229095459e-01 6.264184713363647461e-01
7.811898738145828247e-02 8.786580562591552734e-01 7.707387208938598633e-01
3.571462035179138184e-01 4.422909915447235107e-01 5.855377316474914551e-01
3.311998844146728516e-01 5.348937511444091797e-01 6.383700966835021973e-01
8.051791787147521973e-01 -4.931091964244842529e-01 6.216112971305847168e-01
-4.247188866138458252e-01 -5.069372653961181641e-01 6.621742248535156250e-01
5.018907189369201660e-01 -4.975936114788055420e-01 5.669471621513366699e-01
2.785965502262115479e-01 7.088738679885864258e-01 7.038657069206237793e-01
-3.839772641658782959e-01 -1.592393219470977783e-01 4.297904074192047119e-01
3.180643320083618164e-01 6.298838257789611816e-01 6.587412357330322266e-01
-3.722184598445892334e-01 2.254471331834793091e-01 5.401864051818847656e-01
3.520944416522979736e-01 4.103392362594604492e-01 5.859507322311401367e-01
3.060359358787536621e-01 4.194501042366027832e-01 6.038277745246887207e-01
4.764069318771362305e-01 1.830333322286605835e-01 6.435697078704833984e-01
1.468864269554615021e-02 -9.586282372474670410e-01 8.126507401466369629e-01
3.529915213584899902e-01 4.918983280658721924e-01 5.720831155776977539e-01
-3.775100409984588623e-01 -1.695882827043533325e-01 4.283409118652343750e-01
-6.870811581611633301e-01 -4.330197870731353760e-01 6.172707676887512207e-01
-1.500394344329833984e-01 -8.996616601943969727e-01 7.697796821594238281e-01
8.287854194641113281e-01 9.021946042776107788e-02 6.344648599624633789e-01
-3.569061160087585449e-01 -1.242442950606346130e-01 3.858809471130371094e-01
4.114686325192451477e-02 2.805303037166595459e-01 5.658957362174987793e-01
1.053448915481567383e+00 -1.110855638980865479e-01 5.665428638458251953e-01
3.794717490673065186e-01 3.480892777442932129e-01 5.117492079734802246e-01
1.173339113593101501e-01 8.425812721252441406e-01 8.036831617355346680e-01
2.744955718517303467e-01 6.258818507194519043e-01 7.033061385154724121e-01
1.982167363166809082e-01 2.664853036403656006e-01 5.839750766754150391e-01
-1.587847322225570679e-01 1.901693493127822876e-01 5.835694670677185059e-01
-9.060109257698059082e-01 -1.420595943927764893e-01 6.194264888763427734e-01
-2.587324380874633789e-02 -5.423399806022644043e-01 6.497992277145385742e-01
-5.655888915061950684e-01 1.276243925094604492e-01 5.731839537620544434e-01
2.810129821300506592e-01 -8.075698018074035645e-01 6.510015726089477539e-01
8.012742996215820312e-01 1.345691382884979248e-01 6.086767911911010742e-01
-7.898476123809814453e-01 1.128635369241237640e-02 5.864955782890319824e-01
-2.890306413173675537e-01 -5.732373595237731934e-01 5.117323994636535645e-01
3.327168822288513184e-01 2.445543110370635986e-01 5.909855365753173828e-01
1.058044433593750000e+00 -1.168216168880462646e-01 5.830225944519042969e-01
1.097809970378875732e-01 8.541394472122192383e-01 8.001272678375244141e-01
-5.865443348884582520e-01 9.618787467479705811e-02 5.610908269882202148e-01
5.577699542045593262e-01 2.048922926187515259e-01 5.860541462898254395e-01
1.976770162582397461e-01 -8.634670376777648926e-01 6.941975951194763184e-01
4.276322722434997559e-01 1.950680166482925415e-01 6.450232267379760742e-01
-1.339976638555526733e-01 2.718590199947357178e-01 5.518083572387695312e-01
2.996230125427246094e-01 5.179967284202575684e-01 6.502988338470458984e-01
-3.620303869247436523e-01 1.535374671220779419e-01 4.195950031280517578e-01
3.868825733661651611e-02 2.720949053764343262e-01 5.372053384780883789e-01
-1.555455923080444336e-01 -9.329217076301574707e-01 7.909376025199890137e-01
2.685019075870513916e-01 7.318071126937866211e-01 6.825338602066040039e-01
2.653841674327850342e-01 6.540067791938781738e-01 7.170628905296325684e-01
-8.099245429039001465e-01 9.971432387828826904e-03 5.926082134246826172e-01
3.400983810424804688e-01 5.322968363761901855e-01 5.734448432922363281e-01
9.750497341156005859e-01 1.440502516925334930e-02 5.833539962768554688e-01
1.457920521497726440e-01 2.726021409034729004e-01 5.763140320777893066e-01
7.666581273078918457e-01 1.242546662688255310e-01 6.328242421150207520e-01
9.717888236045837402e-01 1.777098886668682098e-02 5.834041237831115723e-01
2.575119733810424805e-01 -5.175263881683349609e-01 6.238051056861877441e-01
-3.120215237140655518e-01 -4.964029490947723389e-01 6.095607876777648926e-01
-3.375736474990844727e-01 -3.418801724910736084e-01 4.472094774246215820e-01
8.987936973571777344e-01 7.813038676977157593e-02 6.054874658584594727e-01
2.261929810047149658e-01 -5.206063389778137207e-01 6.240478754043579102e-01
-9.785483777523040771e-02 8.103569746017456055e-01 8.143427968025207520e-01
4.180178642272949219e-01 7.843189686536788940e-02 4.474470615386962891e-01
-8.779569864273071289e-01 -1.297149658203125000e-01 5.582655072212219238e-01
2.990840375423431396e-01 -4.394607841968536377e-01 4.726062715053558350e-01
-3.261394500732421875e-01 -4.695314168930053711e-01 4.940049648284912109e-01
-1.623225212097167969e-01 2.156338989734649658e-01 5.920270085334777832e-01
7.144090533256530762e-01 1.646376103162765503e-01 5.651242136955261230e-01
3.452200591564178467e-01 -4.776624739170074463e-01 4.949372708797454834e-01
-5.838078260421752930e-01 -5.086923241615295410e-01 6.591196060180664062e-01
3.274998068809509277e-01 6.083782315254211426e-01 6.310585141181945801e-01
1.064013242721557617e+00 -2.020447403192520142e-01 6.083922982215881348e-01
4.371130764484405518e-01 -5.093163847923278809e-01 6.363307237625122070e-01
-8.315065503120422363e-01 -3.778168559074401855e-01 6.440835595130920410e-01
-3.590837717056274414e-01 1.341239660978317261e-01 4.064308404922485352e-01
3.572527766227722168e-01 -1.902929246425628662e-01 4.581879973411560059e-01
-1.373733580112457275e-01 2.453238666057586670e-01 5.888504981994628906e-01
-6.034809350967407227e-01 -4.841757118701934814e-01 6.539391279220581055e-01
-8.210580348968505859e-01 -3.575738668441772461e-01 5.992649793624877930e-01
1.034768819808959961e+00 -2.871631681919097900e-01 6.193343400955200195e-01
-7.706488668918609619e-02 8.739697337150573730e-01 7.945883274078369141e-01
3.695386052131652832e-01 2.263515591621398926e-01 6.336619853973388672e-01
2.534265518188476562e-01 -5.214374661445617676e-01 6.334030628204345703e-01
5.858379006385803223e-01 -4.791742265224456787e-01 5.883476138114929199e-01
-4.055313467979431152e-01 1.647333502769470215e-01 5.806811451911926270e-01
4.041484594345092773e-01 -2.900004982948303223e-01 4.231375157833099365e-01
-1.680950373411178589e-01 2.624189257621765137e-01 5.651733875274658203e-01
-4.002402424812316895e-01 -5.080873966217041016e-01 6.628779172897338867e-01
5.186449885368347168e-01 1.497641950845718384e-01 6.417225599288940430e-01
8.664983510971069336e-01 1.030398681759834290e-01 5.963960886001586914e-01
3.411258459091186523e-01 -5.265306234359741211e-01 5.063499212265014648e-01
1.429831236600875854e-01 -9.913223385810852051e-01 7.772762775421142578e-01
-3.266132771968841553e-01 3.551647067070007324e-01 4.765038788318634033e-01
1.097809970378875732e-01 8.541394472122192383e-01 8.001272678375244141e-01
-3.726909458637237549e-01 1.853356808423995972e-01 5.815227627754211426e-01
6.917766332626342773e-01 1.774160265922546387e-01 5.947252511978149414e-01
8.590398430824279785e-01 1.029154136776924133e-01 6.096546649932861328e-01
-3.740032613277435303e-01 3.286401927471160889e-01 4.974389672279357910e-01
-3.539880812168121338e-01 2.408844828605651855e-01 4.447929263114929199e-01
6.987044811248779297e-01 -5.203012824058532715e-01 6.283461451530456543e-01
9.418296217918395996e-01 -3.456893265247344971e-01 6.049297451972961426e-01
-8.784977197647094727e-01 -3.172867894172668457e-01 6.346626877784729004e-01
2.284720093011856079e-01 -5.190954208374023438e-01 6.128867268562316895e-01
2.621450126171112061e-01 7.425620555877685547e-01 7.061918973922729492e-01
2.346397340297698975e-01 -8.193669915199279785e-01 6.633878946304321289e-01
1.702657788991928101e-01 2.386239171028137207e-01 6.313107013702392578e-01
-7.790590524673461914e-01 -8.964738808572292328e-03 5.635240077972412109e-01
-8.573896288871765137e-01 -3.123191297054290771e-01 5.816045999526977539e-01
6.535758376121520996e-01 -5.397066473960876465e-01 6.274307966232299805e-01
-1.358706317842006683e-02 2.797428965568542480e-01 5.671818852424621582e-01
1.433791071176528931e-01 -5.312025547027587891e-01 6.351687908172607422e-01
-3.241517543792724609e-01 -3.893657624721527100e-01 4.075585603713989258e-01
7.467738986015319824e-01 -4.962741136550903320e-01 6.267700195312500000e-01
5.773202776908874512e-01 1.721392422914505005e-01 6.371651887893676758e-01
-8.900509476661682129e-01 -1.741738021373748779e-01 5.807496309280395508e-01
-3.073561787605285645e-01 4.530891776084899902e-01 4.931570887565612793e-01
1.067508012056350708e-01 8.275357484817504883e-01 8.139314055442810059e-01
8.350751996040344238e-01 1.223645135760307312e-01 5.906817913055419922e-01
-3.251709342002868652e-01 3.942479491233825684e-01 4.487724006175994873e-01
3.599358201026916504e-01 -6.060062646865844727e-01 4.894869625568389893e-01
7.109772562980651855e-01 -4.631748795509338379e-01 6.018507480621337891e-01
-3.426055908203125000e-01 3.474223911762237549e-01 4.155938327312469482e-01
-3.244654238224029541e-01 3.766949772834777832e-01 4.924353659152984619e-01
2.082718163728713989e-01 7.284566164016723633e-01 7.621643543243408203e-01
-6.540523171424865723e-01 1.469702273607254028e-01 5.551841855049133301e-01
3.064613640308380127e-01 -7.879728078842163086e-01 6.218556761741638184e-01
9.369598031044006348e-01 5.117434263229370117e-02 5.995809435844421387e-01
8.270615935325622559e-01 1.222262158989906311e-01 6.093343496322631836e-01
2.568683326244354248e-01 7.241160273551940918e-01 7.332813739776611328e-01
1.002075195312500000e+00 -1.722428947687149048e-02 5.924122929573059082e-01
9.587574005126953125e-01 3.010460920631885529e-02 5.774307250976562500e-01
2.614096701145172119e-01 -7.280403971672058105e-01 5.951290130615234375e-01
-3.857042491436004639e-01 1.595824658870697021e-01 5.797769427299499512e-01
7.749471664428710938e-01 1.464023590087890625e-01 6.075593829154968262e-01
4.269485473632812500e-01 2.289651185274124146e-01 6.077050566673278809e-01
-8.936589956283569336e-01 -2.332738041877746582e-01 5.609034299850463867e-01
3.136768043041229248e-01 6.002923250198364258e-01 6.709643006324768066e-01
-8.152910470962524414e-01 -9.777991101145744324e-03 5.909581184387207031e-01
2.895498573780059814e-01 -8.542090058326721191e-01 6.509801149368286133e-01
-3.311704099178314209e-01 3.971459865570068359e-01 4.411147534847259521e-01
-3.302175402641296387e-01 -5.710557103157043457e-01 5.391303896903991699e-01
-3.592842221260070801e-01 -1.767039448022842407e-01 4.122877120971679688e-01
-3.213986754417419434e-01 -4.967507123947143555e-01 6.391248106956481934e-01
2.150001972913742065e-01 7.572540044784545898e-01 7.667793035507202148e-01
6.939532607793807983e-02 8.679223060607910156e-01 8.047109842300415039e-01
1.009740233421325684e+00 -6.347932666540145874e-02 6.246998906135559082e-01
2.114354968070983887e-01 -9.152607321739196777e-01 7.390522956848144531e-01
9.681817293167114258e-01 2.175510674715042114e-02 5.892115235328674316e-01
-6.305538415908813477e-01 1.591011881828308105e-01 5.483871102333068848e-01
-1.605169475078582764e-01 -8.776729702949523926e-01 7.343469858169555664e-01
-3.728982806205749512e-01 -2.235879749059677124e-01 4.369588196277618408e-01
1.070594191551208496e+00 -1.647064536809921265e-01 5.834074616432189941e-01
3.310075104236602783e-01 -5.453246235847473145e-01 6.585733890533447266e-01
