-3.702039420604705811e-01 -1.426749348640441895e+00 4.329888150095939636e-02
-3.790191411972045898e-01 -1.426588416099548340e+00 4.017082601785659790e-02
-3.887266814708709717e-01 -1.427610397338867188e+00 3.629256412386894226e-02
-3.994146883487701416e-01 -1.429923534393310547e+00 3.159366920590400696e-02
-4.111319184303283691e-01 -1.433580279350280762e+00 2.603674307465553284e-02
-4.245219826698303223e-01 -1.439435124397277832e+00 1.908057369291782379e-02
-4.425159692764282227e-01 -1.451404809951782227e+00 8.250270970165729523e-03
-4.495286643505096436e-01 -1.448567867279052734e+00 6.741296499967575073e-03
-4.548135101795196533e-01 -1.443410038948059082e+00 6.695681717246770859e-03
-4.600983262062072754e-01 -1.438251256942749023e+00 6.649953313171863556e-03
-4.653833508491516113e-01 -1.433092474937438965e+00 6.604370661079883575e-03
-4.706688821315765381e-01 -1.427934288978576660e+00 6.558334920555353165e-03
-4.759544432163238525e-01 -1.422774910926818848e+00 6.512752268463373184e-03
-4.817518293857574463e-01 -1.418287515640258789e+00 6.038745399564504623e-03
-4.922245442867279053e-01 -1.419921755790710449e+00 1.663104631006717682e-03
-4.973713159561157227e-01 -1.414556980133056641e+00 1.742357388138771057e-03
-5.025163292884826660e-01 -1.409190773963928223e+00 1.821884070523083210e-03
-5.076617002487182617e-01 -1.403825640678405762e+00 1.901103416457772255e-03
-5.128068923950195312e-01 -1.398461699485778809e+00 1.980436732992529869e-03
-5.185386538505554199e-01 -1.393854618072509766e+00 1.573931076563894749e-03
-5.244165658950805664e-01 -1.389432191848754883e+00 1.047997153364121914e-03
-5.299806594848632812e-01 -1.384601235389709473e+00 7.827068911865353584e-04
-5.352454185485839844e-01 -1.379386544227600098e+00 7.649502949789166451e-04
-1.537420392036437988e+00 1.522980630397796631e-01 1.921516358852386475e-01
-1.536775946617126465e+00 1.603194922208786011e-01 1.952839046716690063e-01
-1.538353562355041504e+00 1.670361310243606567e-01 1.971410363912582397e-01
-1.541463017463684082e+00 1.728584915399551392e-01 1.981216967105865479e-01
-1.546043157577514648e+00 1.778304278850555420e-01 1.982633471488952637e-01
-1.552379727363586426e+00 1.817968934774398804e-01 1.974066346883773804e-01
-1.561484932899475098e+00 1.841905713081359863e-01 1.949811428785324097e-01
-3.364336192607879639e-01 -1.430284380912780762e+00 4.615353420376777649e-02
-3.405946493148803711e-01 -1.423803329467773438e+00 4.699505493044853210e-02
-3.469985425472259521e-01 -1.420417785644531250e+00 4.590038210153579712e-02
-3.547339141368865967e-01 -1.418850660324096680e+00 4.366351291537284851e-02
-3.635001778602600098e-01 -1.418671846389770508e+00 4.054944217205047607e-02
-3.732686638832092285e-01 -1.419829010963439941e+00 3.658734261989593506e-02
-3.840242028236389160e-01 -1.422289848327636719e+00 3.179477900266647339e-02
-3.958746790885925293e-01 -1.426187276840209961e+00 2.608407847583293915e-02
-4.094465970993041992e-01 -1.432356476783752441e+00 1.892532408237457275e-02
-4.284304380416870117e-01 -1.445745587348937988e+00 7.185861933976411819e-03
-4.349297881126403809e-01 -1.442250967025756836e+00 6.095785647630691528e-03
-4.409402608871459961e-01 -1.438092112541198730e+00 5.424244794994592667e-03
-4.515407383441925049e-01 -1.440052270889282227e+00 8.695510332472622395e-04
-4.566774666309356689e-01 -1.434697270393371582e+00 9.486578055657446384e-04
-4.618132412433624268e-01 -1.429342746734619141e+00 1.027991180308163166e-03
-4.669487774372100830e-01 -1.423988342285156250e+00 1.107324613258242607e-03
-4.720847606658935547e-01 -1.418634295463562012e+00 1.186577370390295982e-03
-4.779325425624847412e-01 -1.414218068122863770e+00 6.674229516647756100e-04
-4.837448894977569580e-01 -1.409749031066894531e+00 1.805298961699008942e-04
-1.540881276130676270e+00 1.437808722257614136e-01 1.801900416612625122e-01
-1.533001899719238281e+00 1.560367643833160400e-01 1.874913871288299561e-01
-1.532470345497131348e+00 1.639880686998367310e-01 1.905678361654281616e-01
-1.534099221229553223e+00 1.706719100475311279e-01 1.924009323120117188e-01
-1.537251114845275879e+00 1.764664053916931152e-01 1.933593302965164185e-01
-1.541857600212097168e+00 1.814202964305877686e-01 1.934852004051208496e-01
-1.548241615295410156e+00 1.853572279214859009e-01 1.925980597734451294e-01
-1.557465076446533203e+00 1.876820623874664307e-01 1.900961846113204956e-01
-3.214071691036224365e-01 -1.422824263572692871e+00 4.624728485941886902e-02
-3.252746164798736572e-01 -1.415961742401123047e+00 4.733717069029808044e-02
-3.315226733684539795e-01 -1.412400603294372559e+00 4.635947942733764648e-02
-3.391683995723724365e-01 -1.410752654075622559e+00 4.417747259140014648e-02
-3.479074537754058838e-01 -1.410583734512329102e+00 4.105943441390991211e-02
-3.576771914958953857e-01 -1.411796808242797852e+00 3.706355020403862000e-02
-3.684282302856445312e-01 -1.414308905601501465e+00 3.223776072263717651e-02
-3.804320394992828369e-01 -1.418477296829223633e+00 2.635410241782665253e-02
-3.941977322101593018e-01 -1.424978375434875488e+00 1.898027770221233368e-02
-4.145071208477020264e-01 -1.440252900123596191e+00 6.033897865563631058e-03
-4.264071881771087646e-01 -1.444066405296325684e+00 3.169357660226523876e-04
-4.315333664417266846e-01 -1.438723564147949219e+00 3.958812740165740252e-04
-1.535029888153076172e+00 1.483604013919830322e-01 1.763391196727752686e-01
-1.528563499450683594e+00 1.597863435745239258e-01 1.828489899635314941e-01
-1.528068900108337402e+00 1.677112132310867310e-01 1.859121471643447876e-01
-1.529718995094299316e+00 1.743784099817276001e-01 1.877376437187194824e-01
-1.532949090003967285e+00 1.801247894763946533e-01 1.886529475450515747e-01
-1.537655353546142578e+00 1.850186884403228760e-01 1.887214034795761108e-01
-1.544093966484069824e+00 1.889223903417587280e-01 1.877990812063217163e-01
-1.553462982177734375e+00 1.911629736423492432e-01 1.852057725191116333e-01
-3.065406084060668945e-01 -1.415522336959838867e+00 4.626505076885223389e-02
-3.099955618381500244e-01 -1.408109188079833984e+00 4.770998284220695496e-02
-3.160504400730133057e-01 -1.404315829277038574e+00 4.688423126935958862e-02
-3.235763609409332275e-01 -1.402547001838684082e+00 4.478284344077110291e-02
-3.322582840919494629e-01 -1.402349472045898438e+00 4.168557375669479370e-02
-3.419284820556640625e-01 -1.403478980064392090e+00 3.774363920092582703e-02
-3.527002036571502686e-01 -1.406078100204467773e+00 3.286288306117057800e-02
-3.646802306175231934e-01 -1.410278677940368652e+00 2.695625647902488708e-02
-3.787245154380798340e-01 -1.417229890823364258e+00 1.929282024502754211e-02
-4.018752574920654297e-01 -1.436458468437194824e+00 3.823091043159365654e-03
-1.529577374458312988e+00 1.527060270309448242e-01 1.722694486379623413e-01
-1.523837685585021973e+00 1.637010425329208374e-01 1.783777028322219849e-01
-1.523529171943664551e+00 1.715133935213088989e-01 1.813421100378036499e-01
-1.525246143341064453e+00 1.781384199857711792e-01 1.831338554620742798e-01
-1.528583526611328125e+00 1.838186085224151611e-01 1.839889585971832275e-01
-1.533440589904785156e+00 1.886233985424041748e-01 1.839700937271118164e-01
-1.539934158325195312e+00 1.924935728311538696e-01 1.830123811960220337e-01
-1.549489021301269531e+00 1.946269422769546509e-01 1.803033798933029175e-01
-2.918443679809570312e-01 -1.408393859863281250e+00 4.619556292891502380e-02
-2.947426736354827881e-01 -1.400225043296813965e+00 4.812528192996978760e-02
-3.005654215812683105e-01 -1.396144270896911621e+00 4.748782142996788025e-02
-3.079553544521331787e-01 -1.394230008125305176e+00 4.548246040940284729e-02
-3.165042996406555176e-01 -1.393898248672485352e+00 4.247305914759635925e-02
-3.260888159275054932e-01 -1.394963979721069336e+00 3.857257217168807983e-02
-3.368372321128845215e-01 -1.397591352462768555e+00 3.367435932159423828e-02
-3.487558066844940186e-01 -1.401772856712341309e+00 2.777801267802715302e-02
-3.627358376979827881e-01 -1.408709645271301270e+00 2.011774107813835144e-02
-1.524237155914306641e+00 1.569846272468566895e-01 1.681437343358993530e-01
-1.519132256507873535e+00 1.676035225391387939e-01 1.739025712013244629e-01
-1.518994808197021484e+00 1.753118932247161865e-01 1.767753660678863525e-01
-1.520782113075256348e+00 1.818909198045730591e-01 1.785305887460708618e-01
-1.524235606193542480e+00 1.875020712614059448e-01 1.793205589056015015e-01
-1.529217243194580078e+00 1.922325342893600464e-01 1.792290359735488892e-01
-1.535777091979980469e+00 1.960621923208236694e-01 1.782286465167999268e-01
-1.545517921447753906e+00 1.980887502431869507e-01 1.754035204648971558e-01
7.550166249275207520e-01 -3.009440898895263672e-01 8.296991586685180664e-01
7.525603771209716797e-01 -2.958721816539764404e-01 8.306601047515869141e-01
7.491199374198913574e-01 -2.923808693885803223e-01 8.306789994239807129e-01
-2.775768339633941650e-01 -1.401803731918334961e+00 4.580884426832199097e-02
-2.797861695289611816e-01 -1.392686724662780762e+00 4.834709316492080688e-02
-2.851905226707458496e-01 -1.388055086135864258e+00 4.806259647011756897e-02
-2.922672033309936523e-01 -1.385748505592346191e+00 4.631048068404197693e-02
-3.006471991539001465e-01 -1.385232329368591309e+00 4.342101141810417175e-02
-3.101523220539093018e-01 -1.386242985725402832e+00 3.955692797899246216e-02
-3.207632005214691162e-01 -1.388740539550781250e+00 3.474070876836776733e-02
-3.326807618141174316e-01 -1.392986774444580078e+00 2.880169637501239777e-02
-3.465626835823059082e-01 -1.399865150451660156e+00 2.117395401000976562e-02
-3.677605390548706055e-01 -1.416660666465759277e+00 7.213712204247713089e-03
-1.519025444984436035e+00 1.611866801977157593e-01 1.639521569013595581e-01
-1.514427185058593750e+00 1.715049147605895996e-01 1.694331020116806030e-01
-1.514336943626403809e+00 1.791803687810897827e-01 1.722861081361770630e-01
-1.516209006309509277e+00 1.857061833143234253e-01 1.739959269762039185e-01
-1.519768238067626953e+00 1.912528574466705322e-01 1.747265607118606567e-01
-1.524867653846740723e+00 1.959123760461807251e-01 1.745651215314865112e-01
-1.531599879264831543e+00 1.996413022279739380e-01 1.734612286090850830e-01
-1.541560292243957520e+00 2.015421241521835327e-01 1.704999804496765137e-01
7.650402188301086426e-01 -2.950567007064819336e-01 8.300932645797729492e-01
7.637897133827209473e-01 -2.880667746067047119e-01 8.322089910507202148e-01
7.624869942665100098e-01 -2.811831831932067871e-01 8.342661261558532715e-01
7.611175775527954102e-01 -2.744277417659759521e-01 8.362517356872558594e-01
7.596131563186645508e-01 -2.679085731506347656e-01 8.381002545356750488e-01
7.579997181892395020e-01 -2.615820765495300293e-01 8.398375511169433594e-01
7.562714219093322754e-01 -2.554553151130676270e-01 8.414590954780578613e-01
7.544912099838256836e-01 -2.494276016950607300e-01 8.430247306823730469e-01
7.537636756896972656e-01 -2.417642325162887573e-01 8.455814719200134277e-01
7.531210780143737793e-01 -2.339943498373031616e-01 8.482089042663574219e-01
7.524436712265014648e-01 -2.263068407773971558e-01 8.507930040359497070e-01
7.510942816734313965e-01 -2.196916937828063965e-01 8.527340292930603027e-01
7.492424249649047852e-01 -2.138764411211013794e-01 8.541952371597290039e-01
7.469332218170166016e-01 -2.087822407484054565e-01 8.552218079566955566e-01
7.436255812644958496e-01 -2.052371352910995483e-01 8.553093075752258301e-01
-2.647860348224639893e-01 -1.397233366966247559e+00 4.416963830590248108e-02
-2.653398215770721436e-01 -1.385798215866088867e+00 4.818093404173851013e-02
-2.702563107013702393e-01 -1.380513429641723633e+00 4.831650480628013611e-02
-2.769730985164642334e-01 -1.377743244171142578e+00 4.686166346073150635e-02
-2.849842309951782227e-01 -1.376761794090270996e+00 4.427030682563781738e-02
-2.941701412200927734e-01 -1.377383708953857422e+00 4.065470024943351746e-02
-3.046182096004486084e-01 -1.379716396331787109e+00 3.594361245632171631e-02
-3.164580464363098145e-01 -1.383921504020690918e+00 3.002862259745597839e-02
-3.301652967929840088e-01 -1.390636444091796875e+00 2.250045910477638245e-02
-3.497257828712463379e-01 -1.405298709869384766e+00 9.885253384709358215e-03
-1.513875722885131836e+00 1.653517335653305054e-01 1.597340106964111328e-01
-1.509492874145507812e+00 1.755374222993850708e-01 1.651045978069305420e-01
-1.509506821632385254e+00 1.831472516059875488e-01 1.679043024778366089e-01
-1.511511802673339844e+00 1.895919591188430786e-01 1.695408523082733154e-01
-1.515145063400268555e+00 1.950920224189758301e-01 1.702293157577514648e-01
-1.520318746566772461e+00 1.997057944536209106e-01 1.700228452682495117e-01
-1.527299880981445312e+00 2.032901644706726074e-01 1.687706261873245239e-01
-1.537663459777832031e+00 2.049602419137954712e-01 1.655660569667816162e-01
7.661800980567932129e-01 -3.125573694705963135e-01 8.185805082321166992e-01
7.711181044578552246e-01 -2.954955697059631348e-01 8.267167806625366211e-01
7.701863646507263184e-01 -2.879819273948669434e-01 8.291508555412292480e-01
7.692265510559082031e-01 -2.805402278900146484e-01 8.315483331680297852e-01
7.682436704635620117e-01 -2.731605768203735352e-01 8.339139819145202637e-01
7.671471834182739258e-01 -2.659871578216552734e-01 8.361613750457763672e-01
7.660158276557922363e-01 -2.588941454887390137e-01 8.383662700653076172e-01
7.648409605026245117e-01 -2.518931329250335693e-01 8.405209183692932129e-01
7.636605501174926758e-01 -2.449242323637008667e-01 8.426619172096252441e-01
7.625808715820312500e-01 -2.378191798925399780e-01 8.448902368545532227e-01
7.615297436714172363e-01 -2.306927442550659180e-01 8.471371531486511230e-01
7.605649232864379883e-01 -2.234552949666976929e-01 8.494569063186645508e-01
7.595192193984985352e-01 -2.163679897785186768e-01 8.516912460327148438e-01
7.584144473075866699e-01 -2.093965262174606323e-01 8.538610339164733887e-01
7.572804689407348633e-01 -2.024932205677032471e-01 8.559947609901428223e-01
7.552453875541687012e-01 -1.970051079988479614e-01 8.572717308998107910e-01
7.510908246040344238e-01 -1.947968602180480957e-01 8.565520644187927246e-01
7.463616132736206055e-01 -1.934627294540405273e-01 8.552964329719543457e-01
7.407471537590026855e-01 -1.934710592031478882e-01 8.532168269157409668e-01
7.325217723846435547e-01 -1.974425911903381348e-01 8.487060666084289551e-01
-2.516015470027923584e-01 -1.379846334457397461e+00 4.744370281696319580e-02
-2.556090652942657471e-01 -1.373308300971984863e+00 4.837951064109802246e-02
-2.618187665939331055e-01 -1.369864821434020996e+00 4.735650122165679932e-02
-2.695253789424896240e-01 -1.368502616882324219e+00 4.500987008213996887e-02
-2.784334421157836914e-01 -1.368790507316589355e+00 4.160915315151214600e-02
-2.885341048240661621e-01 -1.370700359344482422e+00 3.716677054762840271e-02
-3.000705540180206299e-01 -1.374552488327026367e+00 3.147570788860321045e-02
-3.136081695556640625e-01 -1.381109714508056641e+00 2.404400147497653961e-02
-3.320819139480590820e-01 -1.394381761550903320e+00 1.230331882834434509e-02
-1.508656382560729980e+00 1.695555895566940308e-01 1.555644869804382324e-01
-1.504566311836242676e+00 1.795642524957656860e-01 1.607787609100341797e-01
-1.504689812660217285e+00 1.871057897806167603e-01 1.635217964649200439e-01
-1.506830692291259766e+00 1.934679448604583740e-01 1.650835275650024414e-01
-1.510525703430175781e+00 1.989278644323348999e-01 1.657360792160034180e-01
-1.515773057937622070e+00 2.034962028264999390e-01 1.654850840568542480e-01
-1.523041009902954102e+00 2.069147080183029175e-01 1.640610843896865845e-01
-1.533776521682739258e+00 2.083720415830612183e-01 1.606294661760330200e-01
7.700843811035156250e-01 -3.165743350982666016e-01 8.130472898483276367e-01
7.736421823501586914e-01 -3.016949295997619629e-01 8.198882341384887695e-01
7.746284604072570801e-01 -2.910478711128234863e-01 8.242047429084777832e-01
7.738856673240661621e-01 -2.832355499267578125e-01 8.268276453018188477e-01
7.731052637100219727e-01 -2.755129337310791016e-01 8.294036388397216797e-01
7.723047733306884766e-01 -2.678490579128265381e-01 8.319501876831054688e-01
7.713903188705444336e-01 -2.603945732116699219e-01 8.343769907951354980e-01
7.704569101333618164e-01 -2.529961466789245605e-01 8.367756009101867676e-01
7.695004343986511230e-01 -2.456597834825515747e-01 8.391429185867309570e-01
7.684522867202758789e-01 -2.384937554597854614e-01 8.414129018783569336e-01
7.673830389976501465e-01 -2.313848286867141724e-01 8.436537981033325195e-01
7.663078904151916504e-01 -2.243093997240066528e-01 8.458803296089172363e-01
7.653076052665710449e-01 -2.171400189399719238e-01 8.481693863868713379e-01
7.643425464630126953e-01 -2.099393010139465332e-01 8.504831194877624512e-01
7.633628249168395996e-01 -2.027859985828399658e-01 8.527737855911254883e-01
7.621026635169982910e-01 -1.960918009281158447e-01 8.547898530960083008e-01
7.587281465530395508e-01 -1.926884949207305908e-01 8.548007011413574219e-01
7.549630403518676758e-01 -1.898875385522842407e-01 8.544429540634155273e-01
7.507472038269042969e-01 -1.877748817205429077e-01 8.536625504493713379e-01
7.459382414817810059e-01 -1.865628361701965332e-01 8.523279428482055664e-01
7.401635646820068359e-01 -1.868114471435546875e-01 8.500929474830627441e-01
7.305693030357360840e-01 -1.928497850894927979e-01 8.442924618721008301e-01
-2.385957539081573486e-01 -1.374873399734497070e+00 4.610456526279449463e-02
-2.413352429866790771e-01 -1.366564154624938965e+00 4.817117378115653992e-02
-2.468646168708801270e-01 -1.362198710441589355e+00 4.773944616317749023e-02
-2.540866434574127197e-01 -1.360200881958007812e+00 4.580127075314521790e-02
-2.626729309558868408e-01 -1.360089302062988281e+00 4.265639558434486389e-02
-2.725457251071929932e-01 -1.361740350723266602e+00 3.838067874312400818e-02
-2.837412655353546143e-01 -1.365184664726257324e+00 3.294854238629341125e-02
-2.968794405460357666e-01 -1.371264815330505371e+00 2.581792324781417847e-02
-3.143340945243835449e-01 -1.383231401443481445e+00 1.490111928433179855e-02
-1.503494739532470703e+00 1.737249195575714111e-01 1.513698250055313110e-01
-1.499647855758666992e+00 1.835854649543762207e-01 1.564559042453765869e-01
-1.499836683273315430e+00 1.910835802555084229e-01 1.591681241989135742e-01
-1.502058267593383789e+00 1.973947584629058838e-01 1.606855839490890503e-01
-1.505817532539367676e+00 2.028136700391769409e-01 1.613013446331024170e-01
-1.511196255683898926e+00 2.073031216859817505e-01 1.609715074300765991e-01
-1.518830537796020508e+00 2.105106413364410400e-01 1.593287438154220581e-01
-1.529969096183776855e+00 2.117379903793334961e-01 1.556513160467147827e-01
7.709477543830871582e-01 -3.255798518657684326e-01 8.045152425765991211e-01
7.757667899131774902e-01 -3.085792660713195801e-01 8.126376271247863770e-01
7.768456339836120605e-01 -2.977383732795715332e-01 8.170748949050903320e-01
7.771972417831420898e-01 -2.881225347518920898e-01 8.207852840423583984e-01
7.765901088714599609e-01 -2.800920009613037109e-01 8.235486149787902832e-01
7.759730219841003418e-01 -2.721081078052520752e-01 8.262909650802612305e-01
7.753093838691711426e-01 -2.642278969287872314e-01 8.289774060249328613e-01
7.745431065559387207e-01 -2.565405964851379395e-01 8.315538763999938965e-01
7.737530469894409180e-01 -2.489181607961654663e-01 8.340972065925598145e-01
7.729463577270507812e-01 -2.413489073514938354e-01 8.366144895553588867e-01
7.719957232475280762e-01 -2.340345829725265503e-01 8.389835357666015625e-01
7.710636258125305176e-01 -2.267160862684249878e-01 8.413608074188232422e-01
7.701231837272644043e-01 -2.194356918334960938e-01 8.437209725379943848e-01
7.691119909286499023e-01 -2.122906297445297241e-01 8.460043072700500488e-01
7.680578827857971191e-01 -2.052378058433532715e-01 8.482373952865600586e-01
7.670622467994689941e-01 -1.981161087751388550e-01 8.505178093910217285e-01
7.649549245834350586e-01 -1.927444189786911011e-01 8.517327904701232910e-01
7.619084715843200684e-01 -1.888377964496612549e-01 8.520532250404357910e-01
7.584971189498901367e-01 -1.854976266622543335e-01 8.520269393920898438e-01
7.546806931495666504e-01 -1.827793568372726440e-01 8.516178131103515625e-01
7.504023909568786621e-01 -1.807647049427032471e-01 8.507752418518066406e-01
7.455117106437683105e-01 -1.796769052743911743e-01 8.493596315383911133e-01
7.395570874214172363e-01 -1.801943928003311157e-01 8.469503521919250488e-01
-2.267733365297317505e-01 -1.371532917022705078e+00 4.374730587005615234e-02
-2.275840789079666138e-01 -1.360499620437622070e+00 4.755275696516036987e-02
-2.323296666145324707e-01 -1.355055689811706543e+00 4.781249165534973145e-02
-2.389685958623886108e-01 -1.352277040481567383e+00 4.637535288929939270e-02
-2.470343261957168579e-01 -1.351484894752502441e+00 4.366790503263473511e-02
-2.565138339996337891e-01 -1.352642655372619629e+00 3.970815241336822510e-02
-2.674166560173034668e-01 -1.355744004249572754e+00 3.449505940079689026e-02
-2.800801694393157959e-01 -1.361239790916442871e+00 2.773518487811088562e-02
-2.964618206024169922e-01 -1.371816754341125488e+00 1.769981719553470612e-02
-1.498276114463806152e+00 1.779252737760543823e-01 1.472176462411880493e-01
-1.494606614112854004e+00 1.876766085624694824e-01 1.522136628627777100e-01
-1.494899749755859375e+00 1.951084882020950317e-01 1.548709720373153687e-01
-1.497186183929443359e+00 2.013774663209915161e-01 1.563535332679748535e-01
-1.501025319099426270e+00 2.067466378211975098e-01 1.569228768348693848e-01
-1.506485581398010254e+00 2.111861556768417358e-01 1.565428823232650757e-01
-1.514097213745117188e+00 2.144030779600143433e-01 1.549068242311477661e-01
-1.525952577590942383e+00 2.152220606803894043e-01 1.507986187934875488e-01
7.717567682266235352e-01 -3.347301185131072998e-01 7.958791851997375488e-01
7.772997021675109863e-01 -3.164712488651275635e-01 8.047683835029602051e-01
7.786394357681274414e-01 -3.051572442054748535e-01 8.094941973686218262e-01
7.789972424507141113e-01 -2.954890429973602295e-01 8.132385015487670898e-01
7.788310050964355469e-01 -2.867093682289123535e-01 8.164553046226501465e-01
7.783961892127990723e-01 -2.783974409103393555e-01 8.193971514701843262e-01
7.779279351234436035e-01 -2.701707184314727783e-01 8.222945332527160645e-01
7.774357795715332031e-01 -2.620135247707366943e-01 8.251573443412780762e-01
7.768129706382751465e-01 -2.540954351425170898e-01 8.278819918632507324e-01
7.761664986610412598e-01 -2.462443560361862183e-01 8.305725455284118652e-01
7.755042314529418945e-01 -2.384470701217651367e-01 8.332373499870300293e-01
7.746413946151733398e-01 -2.309948354959487915e-01 8.356981873512268066e-01
7.737798094749450684e-01 -2.235668152570724487e-01 8.381506800651550293e-01
7.729108333587646484e-01 -2.161763310432434082e-01 8.405860662460327148e-01
7.719793915748596191e-01 -2.089083492755889893e-01 8.429525494575500488e-01
7.710168361663818359e-01 -2.017152309417724609e-01 8.452795743942260742e-01
7.700629830360412598e-01 -1.945328116416931152e-01 8.476057648658752441e-01
7.676134705543518066e-01 -1.896962523460388184e-01 8.484971523284912109e-01
7.648041844367980957e-01 -1.854260116815567017e-01 8.490427136421203613e-01
7.617146372795104980e-01 -1.815942227840423584e-01 8.493201136589050293e-01
7.582512497901916504e-01 -1.783400028944015503e-01 8.492418527603149414e-01
7.543900609016418457e-01 -1.756940484046936035e-01 8.487879037857055664e-01
7.500506639480590820e-01 -1.737747192382812500e-01 8.478841185569763184e-01
7.450566887855529785e-01 -1.728428304195404053e-01 8.463671803474426270e-01
7.389142513275146484e-01 -1.736387163400650024e-01 8.437758684158325195e-01
-2.142612636089324951e-01 -1.354985117912292480e+00 4.660207033157348633e-02
-2.180065214633941650e-01 -1.348148584365844727e+00 4.775678738951683044e-02
-2.240220308303833008e-01 -1.344526052474975586e+00 4.686271399259567261e-02
-2.316457927227020264e-01 -1.343158602714538574e+00 4.452631250023841858e-02
-2.405232936143875122e-01 -1.343525886535644531e+00 4.107356071472167969e-02
-2.508952915668487549e-01 -1.345948576927185059e+00 3.629544004797935486e-02
-2.630450129508972168e-01 -1.350801944732666016e+00 2.994526550173759460e-02
-2.783479988574981689e-01 -1.359974026679992676e+00 2.080427855253219604e-02
-1.492961645126342773e+00 1.821805387735366821e-01 1.431302577257156372e-01
-1.489570140838623047e+00 1.917630434036254883e-01 1.479760408401489258e-01
-1.489968299865722656e+00 1.991294175386428833e-01 1.505783498287200928e-01
-1.492319107055664062e+00 2.053565979003906250e-01 1.520258635282516479e-01
-1.496244907379150391e+00 2.106714695692062378e-01 1.525445580482482910e-01
-1.501771330833435059e+00 2.150695919990539551e-01 1.521234810352325439e-01
-1.509337186813354492e+00 2.183101922273635864e-01 1.505080014467239380e-01
-1.521808981895446777e+00 2.187780439853668213e-01 1.460251361131668091e-01
7.735880613327026367e-01 -3.422548174858093262e-01 7.882052659988403320e-01
7.785527110099792480e-01 -3.248700797557830811e-01 7.965791821479797363e-01
7.801360487937927246e-01 -3.131063580513000488e-01 8.015800714492797852e-01
7.806084752082824707e-01 -3.032069504261016846e-01 8.054662346839904785e-01
7.803966999053955078e-01 -2.944615483283996582e-01 8.086637854576110840e-01
7.796870470046997070e-01 -2.865565419197082520e-01 8.113594651222229004e-01
7.791123986244201660e-01 -2.784626185894012451e-01 8.141768574714660645e-01
7.788373827934265137e-01 -2.699161469936370850e-01 8.172760009765625000e-01
7.785174846649169922e-01 -2.614749073982238770e-01 8.203189373016357422e-01
7.781026363372802734e-01 -2.532182335853576660e-01 8.232572078704833984e-01
7.776417732238769531e-01 -2.450657188892364502e-01 8.261392116546630859e-01
7.770838141441345215e-01 -2.370977699756622314e-01 8.289155364036560059e-01
7.764407396316528320e-01 -2.292934358119964600e-01 8.315986990928649902e-01
7.757080197334289551e-01 -2.216603904962539673e-01 8.341842293739318848e-01
7.749384045600891113e-01 -2.141112536191940308e-01 8.367242813110351562e-01
7.740873098373413086e-01 -2.067165523767471313e-01 8.391759991645812988e-01
7.732204794883728027e-01 -1.993729472160339355e-01 8.416029214859008789e-01
7.722424864768981934e-01 -1.922275274991989136e-01 8.439138531684875488e-01
7.700793743133544922e-01 -1.869469434022903442e-01 8.450816273689270020e-01
7.674993276596069336e-01 -1.823237836360931396e-01 8.458470106124877930e-01
7.646445035934448242e-01 -1.781332194805145264e-01 8.463476300239562988e-01
7.615175843238830566e-01 -1.743659973144531250e-01 8.465877175331115723e-01
7.580057382583618164e-01 -1.711914092302322388e-01 8.464612364768981934e-01
7.540817260742187500e-01 -1.686456352472305298e-01 8.459448814392089844e-01
7.496780157089233398e-01 -1.668257266283035278e-01 8.449769020080566406e-01
7.446084618568420410e-01 -1.660065799951553345e-01 8.433839678764343262e-01
7.382455468177795410e-01 -1.671293675899505615e-01 8.405792713165283203e-01
-2.016458213329315186e-01 -1.350426077842712402e+00 4.506039246916770935e-02
-2.040241956710815430e-01 -1.341662168502807617e+00 4.745252430438995361e-02
-2.092541754245758057e-01 -1.336960315704345703e+00 4.725477471947669983e-02
-2.161887586116790771e-01 -1.334662318229675293e+00 4.551780223846435547e-02
-2.245669364929199219e-01 -1.334378600120544434e+00 4.248479008674621582e-02
-2.343724519014358521e-01 -1.336068034172058105e+00 3.817773237824440002e-02
-2.458349317312240601e-01 -1.340032935142517090e+00 3.239747136831283569e-02
-2.601189613342285156e-01 -1.347873449325561523e+00 2.410803921520709991e-02
-1.487705111503601074e+00 1.864003986120223999e-01 1.390181630849838257e-01
-1.484546542167663574e+00 1.958411335945129395e-01 1.437388509511947632e-01
-1.484989404678344727e+00 2.031759470701217651e-01 1.463209688663482666e-01
-1.487333655357360840e+00 2.094018459320068359e-01 1.477754712104797363e-01
-1.491275906562805176e+00 2.147029787302017212e-01 1.482847183942794800e-01
-1.496877074241638184e+00 2.190545201301574707e-01 1.478164792060852051e-01
-1.504561424255371094e+00 2.222246229648590088e-01 1.461249291896820068e-01
-1.517918109893798828e+00 2.221893817186355591e-01 1.411073952913284302e-01
7.756650447845458984e-01 -3.494187295436859131e-01 7.807359695434570312e-01
7.799414396286010742e-01 -3.330974280834197998e-01 7.884783744812011719e-01
7.815533280372619629e-01 -3.212336301803588867e-01 7.935438752174377441e-01
7.820355296134948730e-01 -3.112730681896209717e-01 7.974694371223449707e-01
7.819163799285888672e-01 -3.023353219032287598e-01 8.007841706275939941e-01
7.811548113822937012e-01 -2.944777309894561768e-01 8.034516572952270508e-01
7.800351381301879883e-01 -2.872289717197418213e-01 8.057554364204406738e-01
7.786096930503845215e-01 -2.804980576038360596e-01 8.077497482299804688e-01
7.784353494644165039e-01 -2.717747688293457031e-01 8.109633922576904297e-01
7.783614993095397949e-01 -2.629234492778778076e-01 8.142626881599426270e-01
7.782457470893859863e-01 -2.541753053665161133e-01 8.175076842308044434e-01
7.780575752258300781e-01 -2.455761730670928955e-01 8.206692934036254883e-01
7.777473926544189453e-01 -2.372046858072280884e-01 8.236994743347167969e-01
7.773438096046447754e-01 -2.290130406618118286e-01 8.266271948814392090e-01
7.768384218215942383e-01 -2.210129201412200928e-01 8.294442892074584961e-01
7.762692570686340332e-01 -2.131428420543670654e-01 8.321888446807861328e-01
7.755383253097534180e-01 -2.055552452802658081e-01 8.347660899162292480e-01
7.747606635093688965e-01 -1.980675309896469116e-01 8.372884988784790039e-01
7.739164233207702637e-01 -1.907097399234771729e-01 8.397368788719177246e-01
7.722308635711669922e-01 -1.846852153539657593e-01 8.413679599761962891e-01
7.700017094612121582e-01 -1.795188635587692261e-01 8.424718976020812988e-01
7.673808932304382324e-01 -1.749695539474487305e-01 8.431970477104187012e-01
7.644844651222229004e-01 -1.708507835865020752e-01 8.436562418937683105e-01
7.612945437431335449e-01 -1.671883463859558105e-01 8.438341021537780762e-01
7.577349543571472168e-01 -1.640921831130981445e-01 8.436599373817443848e-01
7.537634968757629395e-01 -1.616221666336059570e-01 8.430953621864318848e-01
7.493040561676025391e-01 -1.598875075578689575e-01 8.420713543891906738e-01
7.441372871398925781e-01 -1.592139899730682373e-01 8.403822779655456543e-01
7.375598549842834473e-01 -1.606527864933013916e-01 8.373689651489257812e-01
-1.910021007061004639e-01 -1.348641514778137207e+00 4.176245257258415222e-02
-1.906117051839828491e-01 -1.335928440093994141e+00 4.668772220611572266e-02
-1.949352622032165527e-01 -1.329963326454162598e+00 4.730422794818878174e-02
-2.012025415897369385e-01 -1.326759099960327148e+00 4.615343362092971802e-02
-2.089103609323501587e-01 -1.325576663017272949e+00 4.370043799281120300e-02
-2.179687321186065674e-01 -1.326272368431091309e+00 4.003353416919708252e-02
-2.286990135908126831e-01 -1.329277634620666504e+00 3.487069159746170044e-02
-2.417277097702026367e-01 -1.335448145866394043e+00 2.765406668186187744e-02
-2.609088718891143799e-01 -1.350127458572387695e+00 1.492606755346059799e-02
-1.482798576354980469e+00 1.904154419898986816e-01 1.347067803144454956e-01
-1.479570031166076660e+00 1.998903900384902954e-01 1.394818872213363647e-01
-1.479933738708496094e+00 2.072657048702239990e-01 1.421176791191101074e-01
-1.482221961021423340e+00 2.135180383920669556e-01 1.436078995466232300e-01
-1.486073374748229980e+00 2.188671976327896118e-01 1.441707313060760498e-01
-1.491544008255004883e+00 2.232885956764221191e-01 1.437762677669525146e-01
-1.499088764190673828e+00 2.265342026948928833e-01 1.421603560447692871e-01
-1.514338016510009766e+00 2.254238873720169067e-01 1.360106617212295532e-01
7.776511907577514648e-01 -3.567756116390228271e-01 7.731370329856872559e-01
7.814466953277587891e-01 -3.411827981472015381e-01 7.804486751556396484e-01
7.829003334045410156e-01 -3.295269608497619629e-01 7.853926420211791992e-01
7.834084630012512207e-01 -3.194771707057952881e-01 7.893739938735961914e-01
7.833349704742431641e-01 -3.104223906993865967e-01 7.927610278129577637e-01
7.825714945793151855e-01 -3.025300800800323486e-01 7.954493761062622070e-01
7.814338803291320801e-01 -2.952745556831359863e-01 7.977564930915832520e-01
7.799342274665832520e-01 -2.886310219764709473e-01 7.996963858604431152e-01
7.781562209129333496e-01 -2.824578583240509033e-01 8.013539314270019531e-01
7.761175036430358887e-01 -2.767224907875061035e-01 8.027481436729431152e-01
7.764745950698852539e-01 -2.671549916267395020e-01 8.064906597137451172e-01
7.767527699470520020e-01 -2.577532529830932617e-01 8.101412653923034668e-01
7.769987583160400391e-01 -2.484415173530578613e-01 8.137456178665161133e-01
7.773067355155944824e-01 -2.390694171190261841e-01 8.173960447311401367e-01
7.772882580757141113e-01 -2.302526384592056274e-01 8.207142353057861328e-01
7.770912051200866699e-01 -2.217531949281692505e-01 8.238448500633239746e-01
7.767910957336425781e-01 -2.134487181901931763e-01 8.268634676933288574e-01
7.762386202812194824e-01 -2.055722326040267944e-01 8.296258449554443359e-01
7.755905389785766602e-01 -1.978738009929656982e-01 8.322843909263610840e-01
7.749254703521728516e-01 -1.902292817831039429e-01 8.349164128303527832e-01
7.739839553833007812e-01 -1.830421090126037598e-01 8.372718095779418945e-01
7.722077965736389160e-01 -1.771729141473770142e-01 8.388155698776245117e-01
7.699249982833862305e-01 -1.721018254756927490e-01 8.398668766021728516e-01
7.672409415245056152e-01 -1.676589548587799072e-01 8.405300378799438477e-01
7.642915248870849609e-01 -1.636309772729873657e-01 8.409368991851806641e-01
7.610512971878051758e-01 -1.600516438484191895e-01 8.410648107528686523e-01
7.574480772018432617e-01 -1.570274680852890015e-01 8.408464789390563965e-01
7.534394264221191406e-01 -1.546166539192199707e-01 8.402436971664428711e-01
7.489204406738281250e-01 -1.529733985662460327e-01 8.391596078872680664e-01
7.436592578887939453e-01 -1.524396836757659912e-01 8.373764753341674805e-01
7.368133664131164551e-01 -1.542732119560241699e-01 8.341033458709716797e-01
-1.781643033027648926e-01 -1.331520438194274902e+00 4.509097337722778320e-02
-1.811083704233169556e-01 -1.323605775833129883e+00 4.696547985076904297e-02
-1.865297704935073853e-01 -1.319231629371643066e+00 4.657065123319625854e-02
-1.936436593532562256e-01 -1.317252159118652344e+00 4.463451728224754333e-02
-2.021297812461853027e-01 -1.317191123962402344e+00 4.145722091197967529e-02
-2.120063900947570801e-01 -1.319057226181030273e+00 3.702875971794128418e-02
-2.237465977668762207e-01 -1.323497772216796875e+00 3.092655539512634277e-02
-2.392847687005996704e-01 -1.333191156387329102e+00 2.141135558485984802e-02
-1.478186607360839844e+00 1.942591816186904907e-01 1.302277892827987671e-01
-1.474593877792358398e+00 2.039385885000228882e-01 1.352329552173614502e-01
-1.474883794784545898e+00 2.113504111766815186e-01 1.379186958074569702e-01
-1.477116227149963379e+00 2.176304906606674194e-01 1.394450515508651733e-01
-1.480885148048400879e+00 2.230215817689895630e-01 1.400569826364517212e-01
-1.486220002174377441e+00 2.275162041187286377e-01 1.397401392459869385e-01
-1.493611454963684082e+00 2.308445274829864502e-01 1.382077634334564209e-01
-1.508383631706237793e+00 2.300022989511489868e-01 1.323196291923522949e-01
7.793966531753540039e-01 -3.645774722099304199e-01 7.652558684349060059e-01
7.828076481819152832e-01 -3.495563268661499023e-01 7.722294330596923828e-01
7.841514945030212402e-01 -3.380292057991027832e-01 7.770989537239074707e-01
7.846108675003051758e-01 -3.280124962329864502e-01 7.810625433921813965e-01
7.845651507377624512e-01 -3.188681900501251221e-01 7.845050096511840820e-01
7.838726043701171875e-01 -3.108203113079071045e-01 7.872875928878784180e-01
7.827572226524353027e-01 -3.034928739070892334e-01 7.896378040313720703e-01
7.812409400939941406e-01 -2.968423664569854736e-01 7.915803194046020508e-01
7.793580889701843262e-01 -2.908077239990234375e-01 7.931511998176574707e-01
7.771941423416137695e-01 -2.852431535720825195e-01 7.944376468658447266e-01
7.747593522071838379e-01 -2.801294326782226562e-01 7.954513430595397949e-01
7.720426321029663086e-01 -2.754793167114257812e-01 7.961827516555786133e-01
7.713322043418884277e-01 -2.676240503787994385e-01 7.988859415054321289e-01
7.736508846282958984e-01 -2.549643218517303467e-01 8.045527338981628418e-01
7.748624086380004883e-01 -2.441243827342987061e-01 8.091123104095458984e-01
7.757172584533691406e-01 -2.338984012603759766e-01 8.133046030998229980e-01
7.761288881301879883e-01 -2.244165241718292236e-01 8.170475959777832031e-01
7.762666940689086914e-01 -2.154050320386886597e-01 8.205090761184692383e-01
7.760871648788452148e-01 -2.069287747144699097e-01 8.236482143402099609e-01
7.755693793296813965e-01 -1.990135461091995239e-01 8.264470100402832031e-01
7.750569581985473633e-01 -1.911196857690811157e-01 8.292394876480102539e-01
7.751255631446838379e-01 -1.823504567146301270e-01 8.325833678245544434e-01
7.740263342857360840e-01 -1.754272282123565674e-01 8.347867727279663086e-01
7.721720933914184570e-01 -1.696921437978744507e-01 8.362548947334289551e-01
7.698149681091308594e-01 -1.647475957870483398e-01 8.372337222099304199e-01
7.670642137527465820e-01 -1.604174375534057617e-01 8.378314375877380371e-01
7.640768289566040039e-01 -1.564552038908004761e-01 8.382003307342529297e-01
7.608090639114379883e-01 -1.529242843389511108e-01 8.382997512817382812e-01
7.571613788604736328e-01 -1.499720215797424316e-01 8.380367159843444824e-01
7.531037926673889160e-01 -1.476386934518814087e-01 8.373844027519226074e-01
7.485250234603881836e-01 -1.460858732461929321e-01 8.362395167350769043e-01
7.431677579879760742e-01 -1.456935554742813110e-01 8.343610167503356934e-01
7.360695004463195801e-01 -1.478962004184722900e-01 8.308422565460205078e-01
-1.679513156414031982e-01 -1.330275177955627441e+00 4.147967696189880371e-02
-1.680678725242614746e-01 -1.318314552307128906e+00 4.596046730875968933e-02
-1.722758114337921143e-01 -1.312233686447143555e+00 4.666931554675102234e-02
-1.785469055175781250e-01 -1.309095263481140137e+00 4.548412933945655823e-02
-1.864300221204757690e-01 -1.308230161666870117e+00 4.282909631729125977e-02
-1.957581192255020142e-01 -1.309380292892456055e+00 3.886466473340988159e-02
-2.066629081964492798e-01 -1.312712550163269043e+00 3.347820788621902466e-02
-2.199297249317169189e-01 -1.319310069084167480e+00 2.596298605203628540e-02
-1.473636865615844727e+00 1.980656236410140991e-01 1.257186830043792725e-01
-1.469620108604431152e+00 2.079841047525405884e-01 1.309907138347625732e-01
-1.469775795936584473e+00 2.154669761657714844e-01 1.337626874446868896e-01
-1.471934080123901367e+00 2.217847853899002075e-01 1.353365778923034668e-01
-1.475633263587951660e+00 2.272109091281890869e-01 1.359898895025253296e-01
-1.480888485908508301e+00 2.317465692758560181e-01 1.357175558805465698e-01
-1.488184928894042969e+00 2.351247221231460571e-01 1.342352479696273804e-01
-1.502686619758605957e+00 2.344338446855545044e-01 1.284870207309722900e-01
7.840158939361572266e-01 -3.582361340522766113e-01 7.638089656829833984e-01
7.853221893310546875e-01 -3.467181622982025146e-01 7.686764001846313477e-01
7.857289910316467285e-01 -3.367399871349334717e-01 7.726184129714965820e-01
7.856078743934631348e-01 -3.276757895946502686e-01 7.760127186775207520e-01
7.850651144981384277e-01 -3.193410038948059082e-01 7.789703011512756348e-01
7.840477824211120605e-01 -3.118147850036621094e-01 7.814406156539916992e-01
7.825160026550292969e-01 -3.051555752754211426e-01 7.833870649337768555e-01
7.805910706520080566e-01 -2.991572618484497070e-01 7.849331498146057129e-01
7.782415747642517090e-01 -2.938641607761383057e-01 7.860500812530517578e-01
7.755576968193054199e-01 -2.891236543655395508e-01 7.868309617042541504e-01
7.725642919540405273e-01 -2.848902940750122070e-01 7.873014211654663086e-01
7.691366672515869141e-01 -2.813601493835449219e-01 7.873405218124389648e-01
7.649459242820739746e-01 -2.790527939796447754e-01 7.866256237030029297e-01
7.588524222373962402e-01 -2.797748744487762451e-01 7.840386629104614258e-01
7.687960863113403320e-01 -2.460351139307022095e-01 8.006191253662109375e-01
7.723901867866516113e-01 -2.314731776714324951e-01 8.075103759765625000e-01
7.737447619438171387e-01 -2.205128073692321777e-01 8.121846914291381836e-01
7.745207548141479492e-01 -2.105103731155395508e-01 8.162758946418762207e-01
7.743615508079528809e-01 -2.020141929388046265e-01 8.194400668144226074e-01
7.740285396575927734e-01 -1.938221007585525513e-01 8.224231004714965820e-01
7.748984098434448242e-01 -1.837895065546035767e-01 8.265612125396728516e-01
7.753031849861145020e-01 -1.745213419198989868e-01 8.302328586578369141e-01
7.740684747695922852e-01 -1.678249090909957886e-01 8.323058485984802246e-01
7.721047997474670410e-01 -1.622727364301681519e-01 8.336678743362426758e-01
7.696668505668640137e-01 -1.574634313583374023e-01 8.345679044723510742e-01
7.668852806091308594e-01 -1.531887799501419067e-01 8.351346254348754883e-01
7.638621926307678223e-01 -1.492888629436492920e-01 8.354673385620117188e-01
7.605546116828918457e-01 -1.458250880241394043e-01 8.355267047882080078e-01
7.568727731704711914e-01 -1.429296582937240601e-01 8.352282643318176270e-01
7.527703642845153809e-01 -1.406662017107009888e-01 8.345304727554321289e-01
7.482089400291442871e-01 -1.390877962112426758e-01 8.333979845046997070e-01
7.429266571998596191e-01 -1.385796666145324707e-01 8.315859436988830566e-01
7.357684373855590820e-01 -1.408615708351135254e-01 8.280027508735656738e-01
-1.563081592321395874e-01 -1.314810156822204590e+00 4.382239654660224915e-02
-1.588862538337707520e-01 -1.306410789489746094e+00 4.603147134184837341e-02
-1.641038209199905396e-01 -1.301799774169921875e+00 4.580130428075790405e-02
-1.710783690214157104e-01 -1.299685955047607422e+00 4.395658150315284729e-02
-1.796780377626419067e-01 -1.299858808517456055e+00 4.062708467245101929e-02
-1.898382008075714111e-01 -1.302204132080078125e+00 3.588025271892547607e-02
-2.020423263311386108e-01 -1.307383418083190918e+00 2.928254567086696625e-02
-2.183158397674560547e-01 -1.318215847015380859e+00 1.899403333663940430e-02
-1.468840241432189941e+00 2.020137161016464233e-01 1.213636770844459534e-01
-1.464637160301208496e+00 2.120330631732940674e-01 1.267614960670471191e-01
-1.464612603187561035e+00 2.196145802736282349e-01 1.296485215425491333e-01
-1.466701984405517578e+00 2.259663492441177368e-01 1.312665939331054688e-01
-1.470337033271789551e+00 2.314239144325256348e-01 1.319581270217895508e-01
-1.475519418716430664e+00 2.359962463378906250e-01 1.317265033721923828e-01
-1.482861876487731934e+00 2.393443286418914795e-01 1.302105039358139038e-01
-1.497030496597290039e+00 2.388399541378021240e-01 1.246413066983222961e-01
7.846407294273376465e-01 -3.679453730583190918e-01 7.547461390495300293e-01
7.863407731056213379e-01 -3.557140231132507324e-01 7.600508928298950195e-01
7.867262959480285645e-01 -3.457229435443878174e-01 7.640020847320556641e-01
7.866264581680297852e-01 -3.365779817104339600e-01 7.674463391304016113e-01
7.860223054885864258e-01 -3.283015191555023193e-01 7.703678607940673828e-01
7.850530743598937988e-01 -3.206574618816375732e-01 7.729098200798034668e-01
7.837358713150024414e-01 -3.136102259159088135e-01 7.750915288925170898e-01
7.818953394889831543e-01 -3.074418008327484131e-01 7.767394781112670898e-01
7.795552611351013184e-01 -3.021047413349151611e-01 7.778807282447814941e-01
7.767263054847717285e-01 -2.975728511810302734e-01 7.785291075706481934e-01
7.733463644981384277e-01 -2.939393222332000732e-01 7.786257266998291016e-01
7.692614197731018066e-01 -2.914445102214813232e-01 7.780202031135559082e-01
7.640169858932495117e-01 -2.908067107200622559e-01 7.762660980224609375e-01
7.549839615821838379e-01 -2.962218821048736572e-01 7.707645297050476074e-01
7.691481113433837891e-01 -2.112934142351150513e-01 8.084973692893981934e-01
7.706357836723327637e-01 -2.002199888229370117e-01 8.132806420326232910e-01
7.708821296691894531e-01 -1.911285668611526489e-01 8.168361186981201172e-01
7.754204869270324707e-01 -1.754149645566940308e-01 8.245476484298706055e-01
7.754521965980529785e-01 -1.667497456073760986e-01 8.278594613075256348e-01
7.740387320518493652e-01 -1.603463143110275269e-01 8.297595977783203125e-01
7.719931602478027344e-01 -1.549332141876220703e-01 8.310418725013732910e-01
7.695190310478210449e-01 -1.501894444227218628e-01 8.319061398506164551e-01
7.666976451873779297e-01 -1.459851115942001343e-01 8.324326872825622559e-01
7.636476755142211914e-01 -1.421330571174621582e-01 8.327381610870361328e-01
7.602804303169250488e-01 -1.387663185596466064e-01 8.327378630638122559e-01
7.565565705299377441e-01 -1.359379589557647705e-01 8.323969841003417969e-01
7.524634599685668945e-01 -1.336632370948791504e-01 8.317045569419860840e-01
7.479437589645385742e-01 -1.320221275091171265e-01 8.306085467338562012e-01
7.427004575729370117e-01 -1.314535140991210938e-01 8.288283348083496094e-01
7.357445955276489258e-01 -1.334230750799179077e-01 8.254295587539672852e-01
-1.466980576515197754e-01 -1.314364433288574219e+00 3.972385451197624207e-02
-1.462869942188262939e-01 -1.301667332649230957e+00 4.471547901630401611e-02
-1.502655446529388428e-01 -1.295305013656616211e+00 4.562285169959068298e-02
-1.563498377799987793e-01 -1.291957378387451172e+00 4.458103328943252563e-02
-1.640287637710571289e-01 -1.290868878364562988e+00 4.207165539264678955e-02
-1.732103675603866577e-01 -1.291887283325195312e+00 3.818742930889129639e-02
-1.845317631959915161e-01 -1.295893311500549316e+00 3.235104680061340332e-02
-1.983879953622817993e-01 -1.303415417671203613e+00 2.421063557267189026e-02
-1.463843584060668945e+00 2.060764878988265991e-01 1.171357110142707825e-01
-1.459687948226928711e+00 2.160620093345642090e-01 1.225206851959228516e-01
-1.459474205970764160e+00 2.237467169761657715e-01 1.255282908678054810e-01
-1.461475968360900879e+00 2.301427274942398071e-01 1.272012293338775635e-01
-1.465047240257263184e+00 2.356319576501846313e-01 1.279318481683731079e-01
-1.470157623291015625e+00 2.402404695749282837e-01 1.277407705783843994e-01
-1.477568626403808594e+00 2.435452938079833984e-01 1.261771917343139648e-01
-1.491513967514038086e+00 2.431658804416656494e-01 1.207223013043403625e-01
7.870264649391174316e-01 -3.653236031532287598e-01 7.510340213775634766e-01
7.876678109169006348e-01 -3.548554182052612305e-01 7.552781105041503906e-01
7.874658107757568359e-01 -3.458333015441894531e-01 7.586475610733032227e-01
7.869039773941040039e-01 -3.374442458152770996e-01 7.616375684738159180e-01
7.859596610069274902e-01 -3.297178745269775391e-01 7.642283439636230469e-01
7.845923900604248047e-01 -3.227151036262512207e-01 7.663811445236206055e-01
7.828748822212219238e-01 -3.163102269172668457e-01 7.681717872619628906e-01
7.807452678680419922e-01 -3.105973303318023682e-01 7.695406079292297363e-01
7.780159115791320801e-01 -3.058767914772033691e-01 7.703013420104980469e-01
7.746090888977050781e-01 -3.022641837596893311e-01 7.703800797462463379e-01
7.704771161079406738e-01 -2.998267412185668945e-01 7.697327733039855957e-01
7.651385068893432617e-01 -2.993289828300476074e-01 7.678833603858947754e-01
7.554686069488525391e-01 -3.057780861854553223e-01 7.617256045341491699e-01
7.758423686027526855e-01 -1.672127544879913330e-01 8.224424123764038086e-01
7.755147218704223633e-01 -1.591259986162185669e-01 8.254065513610839844e-01
7.739812731742858887e-01 -1.529225260019302368e-01 8.271905183792114258e-01
7.718775272369384766e-01 -1.476114392280578613e-01 8.284158110618591309e-01
7.693626880645751953e-01 -1.429397463798522949e-01 8.292396664619445801e-01
7.664867043495178223e-01 -1.388269364833831787e-01 8.297120332717895508e-01
7.633897066116333008e-01 -1.350539177656173706e-01 8.299705386161804199e-01
7.599954009056091309e-01 -1.317334771156311035e-01 8.299419879913330078e-01
7.562353610992431641e-01 -1.289640218019485474e-01 8.295636177062988281e-01
7.521542906761169434e-01 -1.266733407974243164e-01 8.288800120353698730e-01
7.476785778999328613e-01 -1.249668225646018982e-01 8.278219699859619141e-01
7.425103187561035156e-01 -1.242835596203804016e-01 8.261085152626037598e-01
7.357202768325805664e-01 -1.259970664978027344e-01 8.228602409362792969e-01
