1.443850040435791016e+00 2.851147055625915527e-01 6.340503692626953125e-01
1.597699642181396484e+00 2.198000997304916382e-01 6.845549941062927246e-01
1.025941014289855957e+00 1.972090750932693481e-01 5.758276581764221191e-01
1.686143517494201660e+00 -1.034262776374816895e-01 6.412124037742614746e-01
1.451462149620056152e+00 3.164539039134979248e-01 5.728991627693176270e-01
1.587331891059875488e+00 -3.215749263763427734e-01 6.247617006301879883e-01
1.613881468772888184e+00 2.021535784006118774e-01 5.004869103431701660e-01
1.440366744995117188e+00 -4.356561303138732910e-01 5.962515473365783691e-01
1.166102170944213867e+00 2.277349978685379028e-01 4.713337123394012451e-01
1.558299899101257324e+00 2.605101764202117920e-01 6.701189875602722168e-01
1.550199866294860840e+00 2.234308421611785889e-01 6.900495290756225586e-01
1.631039142608642578e+00 8.306627720594406128e-02 4.919032454490661621e-01
1.292246580123901367e+00 2.629130184650421143e-01 5.566717982292175293e-01
1.375746965408325195e+00 3.079739809036254883e-01 5.924133062362670898e-01
1.655094265937805176e+00 -1.436652801930904388e-02 4.970643520355224609e-01
1.533823728561401367e+00 -3.795782029628753662e-01 6.295087337493896484e-01
1.054869532585144043e+00 2.752889394760131836e-01 5.484894514083862305e-01
1.331208109855651855e+00 3.121202290058135986e-01 5.530601739883422852e-01
1.554933547973632812e+00 3.285266458988189697e-01 4.837150275707244873e-01
1.361369013786315918e+00 2.933848500251770020e-01 5.917171835899353027e-01
1.054341912269592285e+00 1.837707906961441040e-01 5.779327750205993652e-01
1.638726234436035156e+00 -3.515107035636901855e-01 6.030210852622985840e-01
1.042594194412231445e+00 -8.616092056035995483e-02 6.349636912345886230e-01
1.072905182838439941e+00 -1.406602710485458374e-01 4.983253777027130127e-01
1.238964200019836426e+00 2.788543403148651123e-01 4.746656715869903564e-01
1.574476242065429688e+00 -3.786673247814178467e-01 6.388930082321166992e-01
1.058068156242370605e+00 1.130647510290145874e-01 5.772440433502197266e-01
1.172613620758056641e+00 1.604236662387847900e-01 5.054022669792175293e-01
1.624613881111145020e+00 2.736664004623889923e-02 6.993368268013000488e-01
1.547047376632690430e+00 3.189854621887207031e-01 4.942163527011871338e-01
1.010354161262512207e+00 9.766551852226257324e-02 6.014905571937561035e-01
1.678114652633666992e+00 1.040613278746604919e-01 6.439065337181091309e-01
1.672993183135986328e+00 2.640156075358390808e-02 6.945377588272094727e-01
1.381192564964294434e+00 3.245911300182342529e-01 5.680434703826904297e-01
1.506593227386474609e+00 3.511132597923278809e-01 4.943170547485351562e-01
1.591608047485351562e+00 -3.392096459865570068e-01 6.289094090461730957e-01
1.574684143066406250e+00 1.416952908039093018e-01 7.088776230812072754e-01
1.303818941116333008e+00 4.296442866325378418e-01 4.818302690982818604e-01
1.081395268440246582e+00 2.325269728899002075e-01 5.620167851448059082e-01
1.643061280250549316e+00 -9.487111866474151611e-02 6.539941430091857910e-01
1.425846219062805176e+00 -4.796665012836456299e-01 6.853827834129333496e-01
1.610272765159606934e+00 -1.885979324579238892e-01 6.133059859275817871e-01
1.689233660697937012e+00 7.206841558218002319e-02 4.881043136119842529e-01
1.567041993141174316e+00 2.657131552696228027e-01 6.425084471702575684e-01
1.219541311264038086e+00 3.964201807975769043e-01 5.098822712898254395e-01
1.009320855140686035e+00 2.160830050706863403e-01 5.547650456428527832e-01
1.347812533378601074e+00 3.080941438674926758e-01 4.951325953006744385e-01
1.674869298934936523e+00 1.852922439575195312e-01 4.466394782066345215e-01
1.045890092849731445e+00 -1.048075780272483826e-01 6.390098333358764648e-01
1.703804969787597656e+00 2.220589108765125275e-02 6.478970646858215332e-01
1.527361631393432617e+00 2.116982936859130859e-01 6.808555722236633301e-01
1.544559121131896973e+00 2.606324553489685059e-01 6.724613308906555176e-01
1.684014916419982910e+00 8.804560452699661255e-02 4.893255233764648438e-01
1.205604434013366699e+00 4.181423187255859375e-01 4.591342210769653320e-01
1.551879644393920898e+00 3.464080095291137695e-01 4.606358706951141357e-01
1.252457618713378906e+00 3.921077549457550049e-01 5.103268027305603027e-01
1.340494632720947266e+00 3.160504996776580811e-01 5.119686722755432129e-01
1.480287671089172363e+00 2.755300402641296387e-01 6.545090675354003906e-01
1.018976569175720215e+00 2.532953321933746338e-01 5.233265757560729980e-01
1.131443023681640625e+00 3.517841100692749023e-01 5.271371603012084961e-01
1.644390583038330078e+00 -3.011111617088317871e-01 6.209071874618530273e-01
1.459055781364440918e+00 3.072548508644104004e-01 5.506590008735656738e-01
1.536957144737243652e+00 -4.118358790874481201e-01 6.481890082359313965e-01
1.698954224586486816e+00 -1.487370282411575317e-01 6.076213121414184570e-01
1.513457417488098145e+00 -3.965182602405548096e-01 6.388189196586608887e-01
1.482323884963989258e+00 3.085097074508666992e-01 5.812994837760925293e-01
1.542750000953674316e+00 3.061189651489257812e-01 4.995316863059997559e-01
1.229100584983825684e+00 2.465081065893173218e-01 5.283804535865783691e-01
1.675317168235778809e+00 2.199571393430233002e-02 6.933990120887756348e-01
1.378134250640869141e+00 4.105373919010162354e-01 4.942276179790496826e-01
1.627118587493896484e+00 1.961410194635391235e-01 6.878408193588256836e-01
1.170073270797729492e+00 1.235987320542335510e-01 4.953312873840332031e-01
1.056928634643554688e+00 5.715959891676902771e-02 5.766582489013671875e-01
1.152277708053588867e+00 2.330234460532665253e-02 4.489254951477050781e-01
1.665536761283874512e+00 2.336023002862930298e-02 4.985160529613494873e-01
1.026189088821411133e+00 -1.310093700885772705e-01 6.514683961868286133e-01
1.028868317604064941e+00 1.146027594804763794e-01 5.967392921447753906e-01
1.580093502998352051e+00 2.614487409591674805e-01 5.003040432929992676e-01
1.386469960212707520e+00 3.101754784584045410e-01 5.945711135864257812e-01
1.136065006256103516e+00 1.675797998905181885e-01 4.950757026672363281e-01
1.390005588531494141e+00 3.192596733570098877e-01 5.807169675827026367e-01
1.607630968093872070e+00 1.759936660528182983e-01 7.057165503501892090e-01
1.118100285530090332e+00 4.088034853339195251e-02 4.977558553218841553e-01
1.120803236961364746e+00 1.661307215690612793e-01 4.803248941898345947e-01
1.295915484428405762e+00 4.352042675018310547e-01 4.582812190055847168e-01
1.365626215934753418e+00 4.300428926944732666e-01 4.712604880332946777e-01
1.076645016670227051e+00 -1.947670616209506989e-02 4.970377385616302490e-01
1.706646680831909180e+00 8.218640089035034180e-02 4.558932483196258545e-01
1.060893654823303223e+00 2.696532011032104492e-01 5.542276501655578613e-01
1.657866716384887695e+00 8.521553874015808105e-02 4.987154006958007812e-01
1.080791831016540527e+00 1.699790507555007935e-01 5.511793494224548340e-01
1.684285402297973633e+00 8.058820664882659912e-02 4.903230965137481689e-01
1.431798815727233887e+00 3.380672931671142578e-01 4.934241473674774170e-01
1.336486339569091797e+00 4.210568964481353760e-01 4.912444651126861572e-01
1.208780050277709961e+00 4.082122445106506348e-01 4.994918704032897949e-01
1.570908784866333008e+00 2.014818489551544189e-01 6.994495987892150879e-01
1.288906455039978027e+00 2.904397845268249512e-01 4.716539084911346436e-01
1.534623980522155762e+00 -3.664064705371856689e-01 6.144431829452514648e-01
1.414774894714355469e+00 3.999781608581542969e-01 4.942469596862792969e-01
1.697438120841979980e+00 4.090848937630653381e-02 6.600127220153808594e-01
1.505574584007263184e+00 3.017098903656005859e-01 6.068145036697387695e-01
1.538842439651489258e+00 -4.007619917392730713e-01 6.435115933418273926e-01
1.442509174346923828e+00 -5.020383000373840332e-01 6.718644499778747559e-01
1.141069293022155762e+00 1.529100239276885986e-01 5.011509656906127930e-01
1.080455660820007324e+00 2.015486061573028564e-01 5.618854761123657227e-01
1.554441094398498535e+00 2.804001867771148682e-01 5.014846324920654297e-01
1.414867877960205078e+00 3.207595944404602051e-01 5.536473989486694336e-01
1.699305653572082520e+00 -8.632485568523406982e-02 4.805204570293426514e-01
1.670495390892028809e+00 1.381311565637588501e-01 4.903891086578369141e-01
1.534347534179687500e+00 -3.618238866329193115e-01 6.055809855461120605e-01
1.538305163383483887e+00 3.272247314453125000e-01 4.938946068286895752e-01
1.101551294326782227e+00 -5.665077641606330872e-02 4.965840876102447510e-01
1.556709885597229004e+00 2.199964076280593872e-01 6.917749643325805664e-01
1.544784665107727051e+00 3.480100631713867188e-01 4.294276535511016846e-01
1.538151860237121582e+00 2.823619246482849121e-01 6.353294253349304199e-01
1.672597289085388184e+00 -1.993363797664642334e-01 4.713526666164398193e-01
1.496822118759155273e+00 -4.473930597305297852e-01 6.615356802940368652e-01
1.050597429275512695e+00 1.717213243246078491e-01 5.809339284896850586e-01
1.415987014770507812e+00 4.184181690216064453e-01 4.739741683006286621e-01
1.280662059783935547e+00 3.010339140892028809e-01 5.063138008117675781e-01
1.057914018630981445e+00 3.253079950809478760e-02 5.649558305740356445e-01
1.639056444168090820e+00 -1.275100708007812500e-01 6.396766901016235352e-01
1.643544077873229980e+00 1.168771162629127502e-01 4.984859526157379150e-01
1.638604402542114258e+00 2.523231804370880127e-01 4.557965099811553955e-01
1.112853407859802246e+00 -1.593394950032234192e-02 4.943094551563262939e-01
1.553480744361877441e+00 -4.429830312728881836e-01 6.357315182685852051e-01
1.510924100875854492e+00 -2.814119756221771240e-01 4.721205830574035645e-01
1.404403328895568848e+00 3.042227327823638916e-01 6.067391633987426758e-01
1.385765671730041504e+00 3.271220028400421143e-01 5.508398413658142090e-01
1.421816825866699219e+00 3.206917047500610352e-01 5.684041976928710938e-01
1.679275274276733398e+00 -2.019778266549110413e-02 4.970336258411407471e-01
1.185390949249267578e+00 3.663854897022247314e-01 5.220133662223815918e-01
1.615679144859313965e+00 2.627272009849548340e-01 4.858856499195098877e-01
1.174796819686889648e+00 1.305971443653106689e-01 4.960243999958038330e-01
1.589560627937316895e+00 2.460311800241470337e-01 6.492890119552612305e-01
1.067669868469238281e+00 -1.118316724896430969e-01 5.786282420158386230e-01
1.424885869026184082e+00 2.828060686588287354e-01 6.271321177482604980e-01
1.230251431465148926e+00 2.760263383388519287e-01 4.847640991210937500e-01
1.679116845130920410e+00 1.732495576143264771e-01 4.581020176410675049e-01
1.353036761283874512e+00 2.904097437858581543e-01 4.821338057518005371e-01
1.227043390274047852e+00 3.861286044120788574e-01 5.137297511100769043e-01
1.168619275093078613e+00 2.985187172889709473e-01 5.125694870948791504e-01
1.402564406394958496e+00 3.128764331340789795e-01 5.948871970176696777e-01
1.016288280487060547e+00 2.379663586616516113e-01 5.418398380279541016e-01
1.296864151954650879e+00 4.324747920036315918e-01 4.737711846828460693e-01
1.624981999397277832e+00 1.816342920064926147e-01 5.000092387199401855e-01
1.683042287826538086e+00 9.627839922904968262e-02 6.422594785690307617e-01
1.553185582160949707e+00 2.650035917758941650e-01 6.646793484687805176e-01
1.193471431732177734e+00 3.898762762546539307e-01 5.127791166305541992e-01
1.553893923759460449e+00 2.717121839523315430e-01 5.010811686515808105e-01
9.846391677856445312e-01 2.652394585311412811e-03 6.159476637840270996e-01
1.339579701423645020e+00 3.163534998893737793e-01 5.496118068695068359e-01
1.111677408218383789e+00 3.464708030223846436e-01 5.241464376449584961e-01
1.424311876296997070e+00 4.159946441650390625e-01 4.722796082496643066e-01
1.032523036003112793e+00 2.195937484502792358e-01 5.685315132141113281e-01
1.580708265304565430e+00 1.219057887792587280e-01 7.114788293838500977e-01
1.237634420394897461e+00 2.589178085327148438e-01 5.291164517402648926e-01
1.416141390800476074e+00 3.124074637889862061e-01 5.972322821617126465e-01
1.611357092857360840e+00 2.872549891471862793e-01 4.443578124046325684e-01
1.576695322990417480e+00 2.355606406927108765e-01 6.815636754035949707e-01
1.421716570854187012e+00 3.895132541656494141e-01 4.974695146083831787e-01
1.654711484909057617e+00 1.506918221712112427e-01 6.470673680305480957e-01
1.043570041656494141e+00 2.738501131534576416e-01 5.417157411575317383e-01
1.688015937805175781e+00 -1.250240504741668701e-01 4.843003451824188232e-01
1.055203437805175781e+00 5.553341284394264221e-02 5.805839896202087402e-01
1.683066487312316895e+00 -2.171043753623962402e-01 6.100192666053771973e-01
1.667860865592956543e+00 -1.530624739825725555e-02 4.986250102519989014e-01
1.061907887458801270e+00 -1.159674152731895447e-01 6.301239728927612305e-01
1.677096247673034668e+00 3.593454137444496155e-02 4.967278838157653809e-01
1.581803202629089355e+00 3.070847690105438232e-01 4.212625026702880859e-01
1.499004244804382324e+00 2.887887358665466309e-01 6.471465229988098145e-01
1.414904952049255371e+00 3.191418349742889404e-01 5.473473668098449707e-01
1.700445532798767090e+00 -1.301049590110778809e-01 6.027446389198303223e-01
1.524772763252258301e+00 -4.688026010990142822e-01 6.427112221717834473e-01
1.048611044883728027e+00 1.095582917332649231e-01 5.874115228652954102e-01
1.665565729141235352e+00 2.010359764099121094e-01 4.673365950584411621e-01
1.545170903205871582e+00 2.426600903272628784e-01 6.828690767288208008e-01
1.564983844757080078e+00 -3.966093361377716064e-01 6.418199539184570312e-01
1.624562501907348633e+00 1.727066934108734131e-01 4.995974302291870117e-01
1.021436691284179688e+00 -7.095927838236093521e-03 6.231074929237365723e-01
1.084092974662780762e+00 6.204813346266746521e-02 4.910630583763122559e-01
1.204247593879699707e+00 2.165543735027313232e-01 5.200213789939880371e-01
1.655035018920898438e+00 2.102030217647552490e-01 4.773887991905212402e-01
1.063058614730834961e+00 8.331079781055450439e-02 5.479820966720581055e-01
1.332089900970458984e+00 4.158609807491302490e-01 4.962497949600219727e-01
1.492507815361022949e+00 2.803545892238616943e-01 6.539679765701293945e-01
1.119877457618713379e+00 3.169980347156524658e-01 5.399470925331115723e-01
1.690547704696655273e+00 1.468331962823867798e-01 4.428465664386749268e-01
1.027108192443847656e+00 -7.563712447881698608e-02 6.382290720939636230e-01
1.018623352050781250e+00 1.930946111679077148e-02 6.176312565803527832e-01
1.213006258010864258e+00 4.072102606296539307e-01 5.013986229896545410e-01
1.141950845718383789e+00 3.710970580577850342e-01 5.164064168930053711e-01
1.647685170173645020e+00 6.555062532424926758e-02 4.968528151512145996e-01
1.037271618843078613e+00 4.296943172812461853e-02 6.046323776245117188e-01
1.697596311569213867e+00 2.565392851829528809e-02 6.099169850349426270e-01
1.479704141616821289e+00 -4.043826162815093994e-01 6.022537946701049805e-01
1.596240520477294922e+00 2.185668498277664185e-01 6.880658864974975586e-01
1.187540769577026367e+00 1.104714646935462952e-01 4.635593593120574951e-01
1.696651458740234375e+00 -1.216956675052642822e-01 4.746341407299041748e-01
1.578312158584594727e+00 -3.148296475410461426e-01 6.181916594505310059e-01
1.326258540153503418e+00 3.003174662590026855e-01 5.649202466011047363e-01
1.436090469360351562e+00 4.118275344371795654e-01 4.716949164867401123e-01
1.022117733955383301e+00 2.196260988712310791e-01 5.631858706474304199e-01
1.333388328552246094e+00 2.912028133869171143e-01 5.745109319686889648e-01
1.200655579566955566e+00 2.460924834012985229e-01 5.066725611686706543e-01
1.671450495719909668e+00 1.747938990592956543e-01 4.760903418064117432e-01
1.504891514778137207e+00 -4.163670837879180908e-01 6.525936126708984375e-01
1.626001000404357910e+00 1.883350461721420288e-01 6.928355693817138672e-01
1.527039289474487305e+00 3.663283586502075195e-01 4.353512823581695557e-01
1.493046879768371582e+00 3.878927826881408691e-01 4.381842613220214844e-01
1.360736846923828125e+00 2.851364910602569580e-01 5.919657349586486816e-01
1.441774249076843262e+00 -4.284082949161529541e-01 6.059594750404357910e-01
1.658925771713256836e+00 1.025137826800346375e-01 7.034295797348022461e-01
1.424311876296997070e+00 4.159946441650390625e-01 4.722796082496643066e-01
1.020749807357788086e+00 8.185280859470367432e-02 6.043910980224609375e-01
1.596654415130615234e+00 2.576239109039306641e-01 4.975528120994567871e-01
1.619661688804626465e+00 1.200462356209754944e-01 4.911708533763885498e-01
1.623124837875366211e+00 -7.871796190738677979e-02 6.414803266525268555e-01
1.100641608238220215e+00 1.371642202138900757e-01 4.765813052654266357e-01
9.973016977310180664e-01 1.164817139506340027e-01 5.932160615921020508e-01
1.280009865760803223e+00 4.077386856079101562e-01 5.033000111579895020e-01
1.546968698501586914e+00 2.252191752195358276e-01 6.892400979995727539e-01
1.627038121223449707e+00 8.310069143772125244e-02 4.894794523715972900e-01
1.546370625495910645e+00 1.872535943984985352e-01 6.930719017982482910e-01
1.591914176940917969e+00 -3.473326563835144043e-01 6.304304003715515137e-01
1.611357092857360840e+00 2.872549891471862793e-01 4.443578124046325684e-01
1.534009814262390137e+00 -4.170168340206146240e-01 6.497538685798645020e-01
1.030236959457397461e+00 -1.021836027503013611e-01 6.441561579704284668e-01
1.335042953491210938e+00 3.128550052642822266e-01 5.013394951820373535e-01
1.506308555603027344e+00 -3.437361717224121094e-01 4.996282458305358887e-01
1.481105804443359375e+00 -4.024859368801116943e-01 6.204521059989929199e-01
1.594727635383605957e+00 -3.423690497875213623e-01 6.288893222808837891e-01
1.405877470970153809e+00 3.235408961772918701e-01 5.606423616409301758e-01
1.692149281501770020e+00 7.682843506336212158e-02 6.517459154129028320e-01
1.443969845771789551e+00 -4.213104546070098877e-01 6.325536370277404785e-01
1.128955006599426270e+00 1.198936849832534790e-01 4.995853006839752197e-01
1.703213214874267578e+00 2.655251324176788330e-02 4.795457720756530762e-01
1.021819949150085449e+00 1.595606096088886261e-02 6.175568699836730957e-01
1.627442240715026855e+00 -8.097244054079055786e-02 4.857682883739471436e-01
1.663592576980590820e+00 1.727401912212371826e-01 4.861294925212860107e-01
1.062906503677368164e+00 -7.249219715595245361e-02 6.006609201431274414e-01
1.275862216949462891e+00 2.923164963722229004e-01 5.314222574234008789e-01
1.580759525299072266e+00 2.458017170429229736e-01 6.695085763931274414e-01
1.387261748313903809e+00 4.094825685024261475e-01 4.938263893127441406e-01
1.427278280258178711e+00 3.141400218009948730e-01 5.942113995552062988e-01
1.663579940795898438e+00 1.196581721305847168e-01 4.962882399559020996e-01
1.504551172256469727e+00 -3.845134675502777100e-01 6.018239855766296387e-01
1.033523321151733398e+00 -1.431049965322017670e-02 6.198574900627136230e-01
1.563785791397094727e+00 2.106722295284271240e-01 6.955631971359252930e-01
1.601538777351379395e+00 2.270362079143524170e-01 6.451851129531860352e-01
1.710510134696960449e+00 -4.299407079815864563e-02 4.689885079860687256e-01
1.709710597991943359e+00 1.721104839816689491e-03 4.737480878829956055e-01
1.036452174186706543e+00 -6.355541199445724487e-02 6.314764022827148438e-01
1.627517461776733398e+00 1.574022769927978516e-01 7.064391374588012695e-01
1.570424556732177734e+00 2.616080641746520996e-01 6.574212908744812012e-01
1.149635434150695801e+00 2.893106639385223389e-01 5.245285630226135254e-01
1.051433682441711426e+00 -1.739153414964675903e-01 6.601985096931457520e-01
1.478357672691345215e+00 2.906405031681060791e-01 6.414664387702941895e-01
1.141927123069763184e+00 2.789666056632995605e-01 5.256197452545166016e-01
1.443332910537719727e+00 3.119385838508605957e-01 5.493598580360412598e-01
1.686561822891235352e+00 1.547593474388122559e-01 4.398697316646575928e-01
1.632324695587158203e+00 2.161255031824111938e-01 4.938432872295379639e-01
1.423628091812133789e+00 -5.072789788246154785e-01 6.775280833244323730e-01
1.103348731994628906e+00 2.296608984470367432e-01 5.444667339324951172e-01
1.102829933166503906e+00 -4.652898013591766357e-02 4.965968430042266846e-01
1.670178651809692383e+00 -1.147384718060493469e-01 6.474144458770751953e-01
1.667811751365661621e+00 2.013856619596481323e-01 4.580513536930084229e-01
1.631885528564453125e+00 1.955239176750183105e-01 6.649194359779357910e-01
1.031854629516601562e+00 4.382246732711791992e-02 6.079748868942260742e-01
1.459290027618408203e+00 3.150756359100341797e-01 5.767447948455810547e-01
1.641337752342224121e+00 -3.336066305637359619e-01 6.080768108367919922e-01
1.477702140808105469e+00 3.986523151397705078e-01 4.572290480136871338e-01
1.296467661857604980e+00 2.621808648109436035e-01 5.586400032043457031e-01
1.261601448059082031e+00 2.280429154634475708e-01 5.362325310707092285e-01
1.006585240364074707e+00 1.072902381420135498e-01 5.988091826438903809e-01
1.025696158409118652e+00 -1.396312862634658813e-01 6.529238224029541016e-01
9.966045618057250977e-01 1.298612058162689209e-01 5.883467793464660645e-01
1.533304691314697266e+00 -3.865169882774353027e-01 6.368104219436645508e-01
1.706709623336791992e+00 3.875781595706939697e-02 4.727609455585479736e-01
1.565635204315185547e+00 1.932125240564346313e-01 7.019918560981750488e-01
1.701247215270996094e+00 7.954790443181991577e-02 4.728633761405944824e-01
1.647778034210205078e+00 -2.929435111582279205e-02 4.948612153530120850e-01
1.709716081619262695e+00 -5.161911249160766602e-02 6.147419214248657227e-01
1.505444049835205078e+00 3.681172430515289307e-01 4.827593564987182617e-01
1.367657303810119629e+00 4.160160124301910400e-01 4.911057054996490479e-01
1.620435237884521484e+00 -2.614524960517883301e-01 6.289764642715454102e-01
1.514743328094482422e+00 -4.162385165691375732e-01 6.518633961677551270e-01
1.040618062019348145e+00 1.072796732187271118e-01 5.933924913406372070e-01
1.338791966438293457e+00 4.115306735038757324e-01 4.977110922336578369e-01
1.700711488723754883e+00 4.780211672186851501e-02 4.801603853702545166e-01
1.536354303359985352e+00 2.284621149301528931e-01 6.851046681404113770e-01
1.560088038444519043e+00 2.891924679279327393e-01 4.997928440570831299e-01
1.254099369049072266e+00 2.870628535747528076e-01 5.159247517585754395e-01
1.712880969047546387e+00 3.999716788530349731e-02 4.497323334217071533e-01
1.480400681495666504e+00 2.931568026542663574e-01 6.389352083206176758e-01
1.429665923118591309e+00 4.056313335895538330e-01 4.854702353477478027e-01
1.661636114120483398e+00 2.039198726415634155e-01 4.721318781375885010e-01
1.565043687820434570e+00 1.991031020879745483e-01 6.998959779739379883e-01
1.140286684036254883e+00 3.837075456976890564e-02 4.851735532283782959e-01
1.644850492477416992e+00 8.046125620603561401e-02 7.137498855590820312e-01
1.532826185226440430e+00 2.895407676696777344e-01 6.157580614089965820e-01
1.694528222084045410e+00 -2.031470090150833130e-02 4.896401464939117432e-01
1.461503982543945312e+00 -4.138607978820800781e-01 6.167085766792297363e-01
1.323247313499450684e+00 3.127476871013641357e-01 5.434001088142395020e-01
1.562141418457031250e+00 -4.015719294548034668e-01 6.434744596481323242e-01
1.524860382080078125e+00 3.290584385395050049e-01 4.973241984844207764e-01
1.064627408981323242e+00 -7.860388606786727905e-02 5.985808372497558594e-01
1.660701751708984375e+00 4.940190166234970093e-02 7.054543495178222656e-01
1.024673700332641602e+00 4.560598637908697128e-03 6.190498471260070801e-01
1.609955906867980957e+00 1.794653087854385376e-01 7.039338946342468262e-01
1.076149463653564453e+00 2.684518396854400635e-01 5.561697483062744141e-01
1.152936935424804688e+00 3.016894757747650146e-01 5.277099609375000000e-01
1.157933592796325684e+00 1.387429535388946533e-01 5.026056170463562012e-01
1.360606193542480469e+00 2.989155948162078857e-01 5.891334414482116699e-01
1.633088946342468262e+00 1.933773010969161987e-01 6.541835069656372070e-01
1.490905761718750000e+00 -4.158541858196258545e-01 6.516969799995422363e-01
1.637622714042663574e+00 -6.251619756221771240e-02 6.527771949768066406e-01
1.539545178413391113e+00 -3.482390046119689941e-01 5.928961038589477539e-01
1.558035135269165039e+00 -3.221913278102874756e-01 5.712414979934692383e-01
1.549597978591918945e+00 2.292499840259552002e-01 6.879237294197082520e-01
1.417906045913696289e+00 3.215264379978179932e-01 5.665802359580993652e-01
1.680055141448974609e+00 1.629295647144317627e-01 4.685206711292266846e-01
1.240280151367187500e+00 4.092179536819458008e-01 5.022935867309570312e-01
1.106518030166625977e+00 2.336827218532562256e-01 5.427629351615905762e-01
1.490499258041381836e+00 3.422357439994812012e-01 5.001547336578369141e-01
1.519562602043151855e+00 3.605058193206787109e-01 4.815207719802856445e-01
1.496155261993408203e+00 3.752419352531433105e-01 4.813629984855651855e-01
1.250743746757507324e+00 3.442060649394989014e-01 4.975257217884063721e-01
1.430183529853820801e+00 3.077792227268218994e-01 6.079502701759338379e-01
1.267383575439453125e+00 4.282656908035278320e-01 4.806243181228637695e-01
1.482323884963989258e+00 3.085097074508666992e-01 5.812994837760925293e-01
1.116049885749816895e+00 1.164445057511329651e-01 4.965547025203704834e-01
1.590738534927368164e+00 1.174235865473747253e-01 7.144879102706909180e-01
1.577349543571472168e+00 -3.087980449199676514e-01 6.153137683868408203e-01
1.165247321128845215e+00 3.103608489036560059e-01 5.228627324104309082e-01
1.516474127769470215e+00 3.628752827644348145e-01 4.810558259487152100e-01
1.432035923004150391e+00 -4.602123200893402100e-01 6.805294156074523926e-01
1.058681368827819824e+00 4.746937006711959839e-02 5.558913946151733398e-01
1.370843291282653809e+00 3.239743709564208984e-01 5.401250123977661133e-01
1.225154519081115723e+00 4.204766452312469482e-01 4.834472537040710449e-01
1.642237663269042969e+00 9.941641986370086670e-02 7.126340270042419434e-01
1.172573685646057129e+00 2.315769791603088379e-01 4.827761650085449219e-01
1.200299620628356934e+00 1.514684408903121948e-01 4.931301176548004150e-01
1.069741964340209961e+00 -1.049071550369262695e-01 5.941746830940246582e-01
1.672877788543701172e+00 1.047288700938224792e-01 6.309443712234497070e-01
1.696461319923400879e+00 -1.188441365957260132e-01 6.226514577865600586e-01
1.592259049415588379e+00 3.074473738670349121e-01 4.395639002323150635e-01
1.694881677627563477e+00 -1.327448040246963501e-01 6.194563508033752441e-01
1.215767979621887207e+00 2.599924802780151367e-01 5.063301920890808105e-01
1.550700545310974121e+00 3.489024341106414795e-01 4.505213499069213867e-01
1.629688262939453125e+00 7.116769999265670776e-02 4.893081486225128174e-01
1.503944158554077148e+00 2.992875277996063232e-01 5.834575295448303223e-01
1.356089830398559570e+00 3.727712035179138184e-01 5.009209513664245605e-01
1.567041993141174316e+00 2.657131552696228027e-01 6.425084471702575684e-01
1.691771864891052246e+00 1.060559228062629700e-01 4.781137406826019287e-01
1.511777639389038086e+00 -3.776807188987731934e-01 5.865614414215087891e-01
1.266072034835815430e+00 4.216115176677703857e-01 4.922930300235748291e-01
1.603211402893066406e+00 1.621732860803604126e-01 7.106412649154663086e-01
1.663048028945922852e+00 1.341905742883682251e-01 6.474681496620178223e-01
1.684001207351684570e+00 1.338736563920974731e-01 4.798551797866821289e-01
1.299481511116027832e+00 4.190657436847686768e-01 4.946178793907165527e-01
1.660968184471130371e+00 -4.626485332846641541e-02 4.981386363506317139e-01
1.609501600265502930e+00 2.849559187889099121e-01 4.690680205821990967e-01
1.615198373794555664e+00 1.804997175931930542e-01 7.024290561676025391e-01
1.051783323287963867e+00 -1.126663684844970703e-01 6.381087303161621094e-01
1.493855714797973633e+00 3.879725635051727295e-01 4.608088731765747070e-01
1.151162981986999512e+00 3.218407034873962402e-01 5.324336886405944824e-01
1.151997923851013184e+00 3.935049772262573242e-01 4.852046668529510498e-01
1.522178053855895996e+00 3.033580482006072998e-01 5.010371208190917969e-01
1.418392300605773926e+00 3.636524081230163574e-01 5.009895563125610352e-01
1.650066733360290527e+00 -2.684251666069030762e-01 6.245742440223693848e-01
1.627645730972290039e+00 -2.641997039318084717e-01 6.312702298164367676e-01
1.253632187843322754e+00 4.245881736278533936e-01 4.865569770336151123e-01
1.618606090545654297e+00 1.718518435955047607e-01 7.045139074325561523e-01
1.251128673553466797e+00 2.793062031269073486e-01 4.652068614959716797e-01
1.682255506515502930e+00 1.939034461975097656e-02 4.952782690525054932e-01
1.480737924575805664e+00 3.088917732238769531e-01 5.911011099815368652e-01
1.335200905799865723e+00 3.789174258708953857e-01 5.028592348098754883e-01
1.178217649459838867e+00 1.085548922419548035e-01 4.802372157573699951e-01
1.168530106544494629e+00 4.018388986587524414e-01 4.886270761489868164e-01
1.418327569961547852e+00 4.205887019634246826e-01 4.383012056350708008e-01
1.047943472862243652e+00 -1.865777820348739624e-01 6.641041636466979980e-01
1.522660732269287109e+00 3.718203902244567871e-01 4.526402354240417480e-01
1.207852721214294434e+00 1.985391378402709961e-01 5.176198482513427734e-01
1.674876928329467773e+00 -1.883938759565353394e-01 6.263110041618347168e-01
1.507353901863098145e+00 3.016780018806457520e-01 5.974142551422119141e-01
1.644905924797058105e+00 -2.196461558341979980e-01 6.312360167503356934e-01
1.596013426780700684e+00 -2.384924888610839844e-01 6.066670417785644531e-01
1.507368803024291992e+00 2.977189421653747559e-01 5.845702290534973145e-01
1.534334897994995117e+00 2.799081206321716309e-01 6.470742821693420410e-01
1.189285039901733398e+00 4.092701673507690430e-01 4.941233992576599121e-01
1.427998423576354980e+00 4.093070030212402344e-01 4.812953174114227295e-01
9.896609783172607422e-01 -9.876900166273117065e-02 6.328145861625671387e-01
1.581375598907470703e+00 1.908801943063735962e-01 7.044069170951843262e-01
1.640217185020446777e+00 -8.319972455501556396e-02 6.534940600395202637e-01
1.675189256668090820e+00 1.372635364532470703e-01 4.873482584953308105e-01
1.547444224357604980e+00 2.118101119995117188e-01 6.921211481094360352e-01
1.631759881973266602e+00 1.204370260238647461e-01 7.134032249450683594e-01
1.393978834152221680e+00 3.184714615345001221e-01 5.825745463371276855e-01
1.647042274475097656e+00 -9.162447601556777954e-02 4.965345561504364014e-01
1.068007111549377441e+00 -1.400778442621231079e-01 4.962014555931091309e-01
1.269052624702453613e+00 4.320314526557922363e-01 4.506967961788177490e-01
1.619078278541564941e+00 2.662741243839263916e-01 4.795007705688476562e-01
1.714842796325683594e+00 -3.174958378076553345e-02 4.562875032424926758e-01
1.115254402160644531e+00 2.898959219455718994e-01 5.446274876594543457e-01
1.688339948654174805e+00 -8.782877773046493530e-02 6.456745266914367676e-01
1.058244347572326660e+00 -7.141902297735214233e-02 5.651370882987976074e-01
1.061993479728698730e+00 1.485507488250732422e-01 5.749526619911193848e-01
1.474206924438476562e+00 3.738622665405273438e-01 4.936003386974334717e-01
1.000646710395812988e+00 1.976408511400222778e-01 5.575848817825317383e-01
1.261090874671936035e+00 2.656161487102508545e-01 5.406208634376525879e-01
9.853904843330383301e-01 1.628426313400268555e-01 5.601489543914794922e-01
1.547817826271057129e+00 2.753612995147705078e-01 6.110497713088989258e-01
1.623031258583068848e+00 -2.839491367340087891e-01 6.295210719108581543e-01
1.666074395179748535e+00 1.236616522073745728e-01 4.948923289775848389e-01
1.041401505470275879e+00 -4.254845157265663147e-02 6.213762760162353516e-01
1.672592282295227051e+00 -9.858845174312591553e-02 6.521825790405273438e-01
1.096684098243713379e+00 -7.178068161010742188e-02 4.980370700359344482e-01
1.439702868461608887e+00 2.975749373435974121e-01 6.232203245162963867e-01
1.685319900512695312e+00 -9.375473856925964355e-02 6.460253000259399414e-01
1.316107392311096191e+00 3.135359287261962891e-01 5.288393497467041016e-01
1.634887576103210449e+00 1.906147003173828125e-01 6.587248444557189941e-01
1.694821715354919434e+00 -1.633306294679641724e-01 6.133486032485961914e-01
1.020496487617492676e+00 -4.634151980280876160e-02 6.320603489875793457e-01
1.173461914062500000e+00 1.370468437671661377e-01 4.987985789775848389e-01
1.534414768218994141e+00 -3.724244236946105957e-01 6.223483085632324219e-01
1.455349802970886230e+00 3.989650011062622070e-01 4.205843806266784668e-01
1.608330845832824707e+00 2.098934352397918701e-01 6.900095343589782715e-01
1.641616344451904297e+00 1.780688762664794922e-01 4.973524510860443115e-01
1.667036175727844238e+00 1.554744839668273926e-01 4.882543087005615234e-01
1.398612141609191895e+00 3.136593699455261230e-01 5.930486917495727539e-01
1.099807024002075195e+00 2.332471162080764771e-01 5.500293374061584473e-01
1.562666416168212891e+00 2.642288506031036377e-01 6.595329046249389648e-01
1.519125819206237793e+00 2.818586230278015137e-01 4.964821338653564453e-01
1.104347705841064453e+00 7.657133787870407104e-02 4.978014230728149414e-01
1.018976569175720215e+00 2.532953321933746338e-01 5.233265757560729980e-01
1.526350975036621094e+00 2.932827174663543701e-01 6.141372323036193848e-01
1.703401803970336914e+00 -2.441837824881076813e-02 4.815041720867156982e-01
1.047983765602111816e+00 -1.943614929914474487e-01 6.662211418151855469e-01
1.179542779922485352e+00 4.036398231983184814e-01 4.961419403553009033e-01
1.555543422698974609e+00 2.511867880821228027e-01 6.784116029739379883e-01
1.696074128150939941e+00 -1.017635986208915710e-01 4.805272817611694336e-01
1.615794062614440918e+00 1.204705536365509033e-01 4.890491962432861328e-01
1.048515915870666504e+00 -1.016097441315650940e-01 6.361297965049743652e-01
1.054858088493347168e+00 -1.770441830158233643e-01 6.603303551673889160e-01
1.573607921600341797e+00 -3.022499084472656250e-01 6.058458685874938965e-01
1.621225714683532715e+00 1.334882080554962158e-01 7.147877812385559082e-01
1.558665156364440918e+00 2.491796761751174927e-01 6.790474653244018555e-01
1.195060014724731445e+00 3.720013201236724854e-01 5.198248624801635742e-01
1.700881481170654297e+00 3.987390175461769104e-02 4.808439910411834717e-01
1.619158864021301270e+00 1.657978594303131104e-01 7.064595818519592285e-01
1.694062471389770508e+00 1.375195831060409546e-01 4.446191787719726562e-01
1.660936713218688965e+00 1.152386218309402466e-01 4.973437190055847168e-01
1.456882476806640625e+00 4.087903201580047607e-01 4.502436816692352295e-01
1.484745025634765625e+00 3.408686220645904541e-01 5.010859370231628418e-01
1.255433678627014160e+00 4.264466166496276855e-01 4.832650721073150635e-01
1.152520895004272461e+00 3.584121763706207275e-01 5.262273550033569336e-01
1.578285694122314453e+00 3.227593004703521729e-01 4.404539763927459717e-01
1.644553542137145996e+00 1.107256114482879639e-01 7.100802063941955566e-01
1.057227969169616699e+00 1.274341940879821777e-01 5.784956216812133789e-01
1.658048510551452637e+00 1.870177835226058960e-01 4.862488210201263428e-01
1.173717498779296875e+00 3.369492888450622559e-01 5.260766148567199707e-01
1.510818004608154297e+00 3.368693292140960693e-01 4.987815618515014648e-01
1.618067622184753418e+00 1.977450400590896606e-01 6.936731934547424316e-01
1.670047879219055176e+00 1.449043303728103638e-01 4.889262914657592773e-01
1.015531063079833984e+00 3.025841712951660156e-02 6.158252358436584473e-01
1.014153599739074707e+00 -1.681667938828468323e-02 6.262179613113403320e-01
1.136439561843872070e+00 3.644574284553527832e-01 5.205497741699218750e-01
1.481257557868957520e+00 3.353297412395477295e-01 5.008336305618286133e-01
1.490491390228271484e+00 3.350715339183807373e-01 5.010536909103393555e-01
1.014192819595336914e+00 9.543375670909881592e-02 6.022742390632629395e-01
1.054122209548950195e+00 1.162437126040458679e-01 5.824109911918640137e-01
1.631039261817932129e+00 -3.109510242938995361e-02 4.838680028915405273e-01
1.092912793159484863e+00 -7.708951085805892944e-02 4.992516934871673584e-01
1.187551021575927734e+00 3.824558854103088379e-01 5.160335302352905273e-01
1.041918396949768066e+00 8.630911260843276978e-02 5.947651863098144531e-01
1.638639569282531738e+00 1.585879772901535034e-01 6.982629895210266113e-01
1.686741948127746582e+00 -4.806258156895637512e-02 6.613257527351379395e-01
1.211433649063110352e+00 1.788903623819351196e-01 5.087561011314392090e-01
1.451735615730285645e+00 2.839663028717041016e-01 6.378938555717468262e-01
1.483716607093811035e+00 3.899481296539306641e-01 4.719188213348388672e-01
1.024477601051330566e+00 -1.074259914457798004e-02 6.228220462799072266e-01
1.041918396949768066e+00 8.630911260843276978e-02 5.947651863098144531e-01
1.620144605636596680e+00 2.765361666679382324e-01 4.595791995525360107e-01
1.457058906555175781e+00 2.651314437389373779e-01 6.457359790802001953e-01
1.592011213302612305e+00 2.250639200210571289e-01 6.843127012252807617e-01
1.221168398857116699e+00 2.699235379695892334e-01 4.816093742847442627e-01
1.635946989059448242e+00 -7.985500991344451904e-02 4.913803339004516602e-01
1.026514649391174316e+00 -1.073034331202507019e-01 6.456828713417053223e-01
1.614575266838073730e+00 2.675040662288665771e-01 4.828217625617980957e-01
1.359741806983947754e+00 3.151528537273406982e-01 5.119818449020385742e-01
1.282659053802490234e+00 4.110621511936187744e-01 5.014321804046630859e-01
1.405993461608886719e+00 4.269881248474121094e-01 4.510574638843536377e-01
1.567513585090637207e+00 -3.834740221500396729e-01 6.385731101036071777e-01
1.620895504951477051e+00 2.074067294597625732e-01 6.856814622879028320e-01
1.078668713569641113e+00 2.068986445665359497e-01 5.637428164482116699e-01
1.133937954902648926e+00 4.663952440023422241e-02 4.919098913669586182e-01
1.023392915725708008e+00 -8.070928603410720825e-02 6.397440433502197266e-01
1.556516885757446289e+00 2.696740031242370605e-01 6.180252432823181152e-01
1.624864697456359863e+00 1.312375068664550781e-01 4.958173334598541260e-01
1.677670717239379883e+00 1.672530323266983032e-01 4.697679877281188965e-01
1.404438853263854980e+00 3.480926156044006348e-01 4.936113059520721436e-01
1.477623224258422852e+00 3.045623004436492920e-01 6.180540323257446289e-01
1.628710627555847168e+00 2.578036189079284668e-01 4.748056232929229736e-01
1.136906862258911133e+00 2.881569266319274902e-01 5.334497094154357910e-01
1.167012572288513184e+00 1.358148604631423950e-01 5.002831816673278809e-01
1.040986180305480957e+00 2.880306839942932129e-01 5.144487023353576660e-01
1.524110794067382812e+00 2.842283546924591064e-01 6.436405181884765625e-01
1.071718811988830566e+00 -1.152594313025474548e-01 6.070818305015563965e-01
1.409853458404541016e+00 2.994894981384277344e-01 6.123974323272705078e-01
1.658381223678588867e+00 -1.811072379350662231e-01 4.904743731021881104e-01
1.260852456092834473e+00 2.936225235462188721e-01 5.015234947204589844e-01
1.692110896110534668e+00 1.432242840528488159e-01 4.470537006855010986e-01
1.518027544021606445e+00 2.980172634124755859e-01 6.015953421592712402e-01
1.663553357124328613e+00 2.742161229252815247e-02 7.000982165336608887e-01
1.688245177268981934e+00 8.291599899530410767e-02 6.632373929023742676e-01
1.581437349319458008e+00 2.352304756641387939e-01 6.790261864662170410e-01
1.659063220024108887e+00 2.076191455125808716e-01 4.728604555130004883e-01
1.685268044471740723e+00 -9.063080698251724243e-02 4.918128848075866699e-01
1.166146993637084961e+00 1.896318942308425903e-01 5.065771937370300293e-01
1.708834648132324219e+00 6.998825818300247192e-02 4.384007751941680908e-01
1.499714970588684082e+00 -4.424978196620941162e-01 6.597101092338562012e-01
1.113937020301818848e+00 -8.107884228229522705e-02 4.904841780662536621e-01
1.660291194915771484e+00 -1.471601128578186035e-01 6.405221819877624512e-01
1.680748701095581055e+00 1.686533689498901367e-01 4.396032094955444336e-01
1.395388841629028320e+00 4.242717325687408447e-01 4.755166172981262207e-01
1.662387251853942871e+00 -2.222484648227691650e-01 6.283760070800781250e-01
1.662557601928710938e+00 1.159591078758239746e-01 6.262949705123901367e-01
1.151757121086120605e+00 2.392723970115184784e-02 4.547803997993469238e-01
1.591058135032653809e+00 2.962822020053863525e-01 4.807899892330169678e-01
1.518381953239440918e+00 2.926663458347320557e-01 6.297779679298400879e-01
1.679677367210388184e+00 1.504029892385005951e-02 4.965564608573913574e-01
1.427972078323364258e+00 4.183893203735351562e-01 4.597136974334716797e-01
1.673661231994628906e+00 1.198180839419364929e-01 4.917817115783691406e-01
1.543223619461059570e+00 3.393413424491882324e-01 4.831355512142181396e-01
1.100372791290283203e+00 -9.968190640211105347e-02 4.974505305290222168e-01
1.544510722160339355e+00 -3.391142785549163818e-01 4.935740232467651367e-01
1.607923388481140137e+00 2.456485480070114136e-01 4.971033632755279541e-01
1.360293984413146973e+00 4.299398958683013916e-01 4.733189344406127930e-01
1.682157039642333984e+00 6.931153684854507446e-02 4.929546713829040527e-01
1.416451930999755859e+00 3.083371520042419434e-01 5.256289839744567871e-01
1.460357069969177246e+00 3.752531707286834717e-01 4.965481162071228027e-01
1.179688334465026855e+00 3.375814557075500488e-01 5.243158936500549316e-01
1.005912065505981445e+00 7.702437788248062134e-02 6.059356331825256348e-01
1.211828351020812988e+00 4.203025996685028076e-01 4.642022848129272461e-01
1.497338056564331055e+00 -3.171977996826171875e-01 4.916797578334808350e-01
1.631393074989318848e+00 1.834733188152313232e-01 6.371677517890930176e-01
1.605543017387390137e+00 2.273475527763366699e-01 6.680900454521179199e-01
1.209692120552062988e+00 2.247903794050216675e-01 5.220524668693542480e-01
1.525209665298461914e+00 2.927583754062652588e-01 6.183371543884277344e-01
1.661383628845214844e+00 9.871722757816314697e-02 7.026869654655456543e-01
1.005653738975524902e+00 6.927388906478881836e-02 6.076133847236633301e-01
1.629948258399963379e+00 2.125795781612396240e-01 4.955060184001922607e-01
1.336389899253845215e+00 4.360773861408233643e-01 4.621011912822723389e-01
1.103348731994628906e+00 2.296608984470367432e-01 5.444667339324951172e-01
1.596460223197937012e+00 2.338689714670181274e-01 6.666082739830017090e-01
1.022755980491638184e+00 1.287423223257064819e-01 5.951744318008422852e-01
1.709012508392333984e+00 -3.523251786828041077e-02 4.728063941001892090e-01
1.583059549331665039e+00 2.196797281503677368e-01 6.913025379180908203e-01
1.072592854499816895e+00 3.285278081893920898e-01 5.091339349746704102e-01
1.417170524597167969e+00 4.229949712753295898e-01 4.557050764560699463e-01
1.682939171791076660e+00 1.176998615264892578e-01 4.853591322898864746e-01
1.511067390441894531e+00 3.230227828025817871e-01 5.010105371475219727e-01
1.665934205055236816e+00 1.313322186470031738e-01 4.941537082195281982e-01
1.233301043510437012e+00 4.237276017665863037e-01 4.792525172233581543e-01
1.489510655403137207e+00 3.738149106502532959e-01 4.870523512363433838e-01
1.673279881477355957e+00 -6.741727143526077271e-02 6.590002179145812988e-01
1.559006452560424805e+00 3.211723566055297852e-01 4.870290160179138184e-01
1.521178722381591797e+00 2.233824282884597778e-01 6.788380146026611328e-01
1.305502533912658691e+00 4.202179312705993652e-01 4.935299158096313477e-01
1.170939207077026367e+00 1.893647462129592896e-01 5.090521574020385742e-01
1.416317820549011230e+00 2.757496833801269531e-01 6.234749555587768555e-01
1.095319390296936035e+00 8.615327626466751099e-02 4.923806786537170410e-01
9.973532557487487793e-01 1.093044728040695190e-01 5.952781438827514648e-01
1.653781414031982422e+00 3.549978509545326233e-02 7.042470574378967285e-01
1.443969845771789551e+00 -4.213104546070098877e-01 6.325536370277404785e-01
1.659370899200439453e+00 -5.915044248104095459e-02 6.611363887786865234e-01
1.679497599601745605e+00 -6.359191238880157471e-02 6.592652201652526855e-01
1.046071290969848633e+00 -1.455309707671403885e-02 6.090251803398132324e-01
1.526016354560852051e+00 2.814270853996276855e-01 6.482503414154052734e-01
1.574477195739746094e+00 2.600373327732086182e-01 5.012782216072082520e-01
1.583953142166137695e+00 2.515660524368286133e-01 6.492465138435363770e-01
1.006119012832641602e+00 8.467542380094528198e-02 6.041967868804931641e-01
1.087757706642150879e+00 2.182267308235168457e-01 5.578433871269226074e-01
1.106090903282165527e+00 2.563859820365905762e-01 5.491601824760437012e-01
1.673732399940490723e+00 -8.650075644254684448e-02 6.541109681129455566e-01
1.676927208900451660e+00 1.862032525241374969e-02 4.970595538616180420e-01
1.711530327796936035e+00 -3.831815719604492188e-02 6.337159872055053711e-01
1.048578739166259766e+00 -4.182978346943855286e-02 6.139709949493408203e-01
1.447748184204101562e+00 3.157979547977447510e-01 5.649848580360412598e-01
1.605969905853271484e+00 -2.242755591869354248e-01 6.138519644737243652e-01
1.506588578224182129e+00 3.787288665771484375e-01 4.355459213256835938e-01
1.456588387489318848e+00 -4.453941583633422852e-01 6.711557507514953613e-01
1.567706108093261719e+00 2.483842372894287109e-01 5.005212426185607910e-01
1.442952632904052734e+00 2.902800738811492920e-01 6.312983632087707520e-01
1.610119342803955078e+00 -1.717320233583450317e-01 6.114111542701721191e-01
1.042501688003540039e+00 1.393493860960006714e-01 5.881617069244384766e-01
1.471529841423034668e+00 -3.532689511775970459e-01 4.995489716529846191e-01
1.632378339767456055e+00 -9.148897230625152588e-02 6.500898599624633789e-01
1.046267271041870117e+00 -3.687492012977600098e-02 6.152192950248718262e-01
1.404343962669372559e+00 4.175738692283630371e-01 4.824220538139343262e-01
1.127869725227355957e+00 -4.096102435141801834e-03 4.851668477058410645e-01
1.469120740890502930e+00 -4.103664755821228027e-01 6.330332756042480469e-01
1.672937154769897461e+00 1.233050823211669922e-01 6.724285483360290527e-01
1.014929890632629395e+00 1.256651431322097778e-01 5.953198075294494629e-01
1.585613608360290527e+00 1.545457541942596436e-01 7.118141055107116699e-01
1.462059140205383301e+00 3.840169012546539307e-01 4.923315942287445068e-01
1.378632307052612305e+00 4.277488291263580322e-01 4.725587069988250732e-01
1.622038006782531738e+00 2.687057852745056152e-01 4.721040129661560059e-01
1.339462161064147949e+00 3.186343014240264893e-01 5.292355418205261230e-01
1.395388841629028320e+00 4.242717325687408447e-01 4.755166172981262207e-01
1.688742518424987793e+00 7.638928294181823730e-02 6.649229526519775391e-01
1.237440824508666992e+00 3.646385073661804199e-01 5.127187967300415039e-01
1.639791011810302734e+00 -7.185087352991104126e-02 4.927524030208587646e-01
1.467878580093383789e+00 4.048666357994079590e-01 4.548686742782592773e-01
1.584802269935607910e+00 2.956055402755737305e-01 4.871770739555358887e-01
1.643915057182312012e+00 2.372793555259704590e-01 4.328130781650543213e-01
1.374809265136718750e+00 4.273397624492645264e-01 4.311095476150512695e-01
1.078811407089233398e+00 1.679039448499679565e-01 5.546409487724304199e-01
1.543637037277221680e+00 3.506051599979400635e-01 4.689272940158843994e-01
1.004406690597534180e+00 3.035469725728034973e-02 6.161244511604309082e-01
1.049711465835571289e+00 2.753102779388427734e-01 5.457577705383300781e-01
1.427669525146484375e+00 3.630823791027069092e-01 5.009684562683105469e-01
1.560111641883850098e+00 3.356818556785583496e-01 4.314256310462951660e-01
1.043273687362670898e+00 6.528324633836746216e-02 5.962072014808654785e-01
1.160564064979553223e+00 1.095097139477729797e-01 4.939359724521636963e-01
1.594182491302490234e+00 2.158216983079910278e-01 6.903781890869140625e-01
1.676756978034973145e+00 6.647098064422607422e-02 6.933266520500183105e-01
1.064500927925109863e+00 1.742125600576400757e-01 5.727119445800781250e-01
1.075909852981567383e+00 2.400288283824920654e-01 5.630767345428466797e-01
1.491114139556884766e+00 3.129238486289978027e-01 4.983944594860076904e-01
1.458541631698608398e+00 -4.176120460033416748e-01 6.411320567131042480e-01
1.704019665718078613e+00 6.778661906719207764e-02 4.727114737033843994e-01
1.660701751708984375e+00 4.940190166234970093e-02 7.054543495178222656e-01
1.189258456230163574e+00 4.139474928379058838e-01 4.802526831626892090e-01
1.439905405044555664e+00 3.808495402336120605e-01 4.980262815952301025e-01
1.610209465026855469e+00 2.168066352605819702e-01 6.391426920890808105e-01
