-1.202335834503173828e+00 4.386097192764282227e-01 6.110619306564331055e-01
-1.207299113273620605e+00 4.424825012683868408e-01 6.107046008110046387e-01
-1.212264299392700195e+00 4.463572204113006592e-01 6.103472113609313965e-01
-1.217231750488281250e+00 4.502331018447875977e-01 6.099894046783447266e-01
-1.222200512886047363e+00 4.541106522083282471e-01 6.096319556236267090e-01
-1.227171659469604492e+00 4.579889774322509766e-01 6.092736721038818359e-01
-1.232695102691650391e+00 4.615690112113952637e-01 6.086369156837463379e-01
-1.238357901573181152e+00 4.650772511959075928e-01 6.079306006431579590e-01
-1.244009137153625488e+00 4.685967266559600830e-01 6.072319746017456055e-01
-1.249663472175598145e+00 4.721191525459289551e-01 6.065334081649780273e-01
-1.255321979522705078e+00 4.756447374820709229e-01 6.058343052864074707e-01
-1.261063218116760254e+00 4.791305661201477051e-01 6.050950884819030762e-01
-1.266824007034301758e+00 4.826102554798126221e-01 6.043475270271301270e-01
-1.272589206695556641e+00 4.860937297344207764e-01 6.035999059677124023e-01
-1.278359889984130859e+00 4.895790219306945801e-01 6.028508543968200684e-01
-1.284148454666137695e+00 4.930597245693206787e-01 6.020945906639099121e-01
-1.290391802787780762e+00 4.963060617446899414e-01 6.011123061180114746e-01
-1.297584891319274902e+00 4.990582764148712158e-01 5.996570587158203125e-01
-1.304788231849670410e+00 5.018147230148315430e-01 5.981995463371276855e-01
-1.312003254890441895e+00 5.045754313468933105e-01 5.967396497726440430e-01
-1.319229245185852051e+00 5.073406100273132324e-01 5.952778458595275879e-01
-1.326461911201477051e+00 5.101121068000793457e-01 5.938156247138977051e-01
-1.333491325378417969e+00 5.129987001419067383e-01 5.924578905105590820e-01
-1.340531587600708008e+00 5.158897638320922852e-01 5.910982489585876465e-01
-1.347581624984741211e+00 5.187850594520568848e-01 5.897367596626281738e-01
-1.354640960693359375e+00 5.216839909553527832e-01 5.883727669715881348e-01
-1.363439202308654785e+00 5.237035155296325684e-01 5.861514806747436523e-01
-1.372486233711242676e+00 5.256107449531555176e-01 5.838116407394409180e-01
-1.381431221961975098e+00 5.275863409042358398e-01 5.815275907516479492e-01
-1.390264749526977539e+00 5.296332836151123047e-01 5.793034434318542480e-01
-1.399119377136230469e+00 5.316851735115051270e-01 5.770741105079650879e-01
-1.407993912696838379e+00 5.337421894073486328e-01 5.748397111892700195e-01
-1.416888475418090820e+00 5.358037948608398438e-01 5.726001262664794922e-01
-1.425803899765014648e+00 5.378703474998474121e-01 5.703557133674621582e-01
-1.438694357872009277e+00 5.379720926284790039e-01 5.661646723747253418e-01
-1.451577067375183105e+00 5.381062030792236328e-01 5.619863271713256836e-01
-1.464515328407287598e+00 5.382403731346130371e-01 5.577899217605590820e-01
-1.477511882781982422e+00 5.383749008178710938e-01 5.535747408866882324e-01
-1.490563988685607910e+00 5.385100841522216797e-01 5.493416190147399902e-01
-1.513447403907775879e+00 5.338569879531860352e-01 5.403169393539428711e-01
-1.545050621032714844e+00 5.250074863433837891e-01 5.270593762397766113e-01
-9.507132768630981445e-01 -9.594254940748214722e-02 5.114765167236328125e-01
-9.447585940361022949e-01 -8.364461362361907959e-02 5.174791216850280762e-01
-9.414051175117492676e-01 -7.333923131227493286e-02 5.219711661338806152e-01
-9.380325078964233398e-01 -6.305481493473052979e-02 5.264626145362854004e-01
-9.364986419677734375e-01 -5.417153239250183105e-02 5.298885107040405273e-01
-9.361470341682434082e-01 -4.619221016764640808e-02 5.326279997825622559e-01
-9.357950687408447266e-01 -3.823325783014297485e-02 5.353611111640930176e-01
-9.354005455970764160e-01 -3.026497922837734222e-02 5.381116867065429688e-01
-9.349078536033630371e-01 -2.224581874907016754e-02 5.409106612205505371e-01
-9.345663785934448242e-01 -1.435914356261491776e-02 5.436166524887084961e-01
-9.347202181816101074e-01 -6.854863371700048447e-03 5.460341572761535645e-01
-9.348269104957580566e-01 6.647986010648310184e-04 5.484718084335327148e-01
-9.349097609519958496e-01 8.182884193956851959e-03 5.509169101715087891e-01
-9.358190894126892090e-01 1.508402917534112930e-02 5.528876781463623047e-01
-9.369524717330932617e-01 2.180858142673969269e-02 5.547263622283935547e-01
-9.380777478218078613e-01 2.852458693087100983e-02 5.565646290779113770e-01
-9.391701817512512207e-01 3.525023534893989563e-02 5.584174394607543945e-01
-9.402609467506408691e-01 4.196263477206230164e-02 5.602660775184631348e-01
-9.415721893310546875e-01 4.850342497229576111e-02 5.619857311248779297e-01
-9.429651498794555664e-01 5.497286468744277954e-02 5.636552572250366211e-01
-9.443473815917968750e-01 6.143758818507194519e-02 5.653270483016967773e-01
-9.456722736358642578e-01 6.792984902858734131e-02 5.670262575149536133e-01
-9.469944238662719727e-01 7.441061735153198242e-02 5.687226653099060059e-01
-9.487858414649963379e-01 8.054896444082260132e-02 5.701521039009094238e-01
-9.507561326026916504e-01 8.655220270156860352e-02 5.714784264564514160e-01
-9.527236223220825195e-01 9.254705905914306641e-02 5.728029608726501465e-01
-9.546619653701782227e-01 9.855141490697860718e-02 5.741400122642517090e-01
-9.565688371658325195e-01 1.045677065849304199e-01 5.754914879798889160e-01
-9.584725499153137207e-01 1.105765700340270996e-01 5.768414735794067383e-01
-9.603741765022277832e-01 1.165757179260253906e-01 5.781891345977783203e-01
-9.623937606811523438e-01 1.224836632609367371e-01 5.794676542282104492e-01
-9.644865393638610840e-01 1.283327788114547729e-01 5.807031393051147461e-01
-9.665569067001342773e-01 1.341868937015533447e-01 5.819474458694458008e-01
-9.685983061790466309e-01 1.400511413812637329e-01 5.832047462463378906e-01
-9.710198640823364258e-01 1.456486284732818604e-01 5.842491984367370605e-01
-9.735752940177917480e-01 1.511476933956146240e-01 5.852170586585998535e-01
-9.761283993721008301e-01 1.566411107778549194e-01 5.861840844154357910e-01
-9.786784648895263672e-01 1.621283590793609619e-01 5.871501564979553223e-01
-9.812267422676086426e-01 1.676109135150909424e-01 5.881149768829345703e-01
-9.837340116500854492e-01 1.731132119894027710e-01 5.891000032424926758e-01
-9.862300157546997070e-01 1.786148548126220703e-01 5.900884270668029785e-01
-9.887236356735229492e-01 1.841109544038772583e-01 5.910759568214416504e-01
-9.912145137786865234e-01 1.896019577980041504e-01 5.920624732971191406e-01
-9.937030076980590820e-01 1.950868666172027588e-01 5.930477380752563477e-01
-9.961892366409301758e-01 2.005662471055984497e-01 5.940321683883666992e-01
-9.988689422607421875e-01 2.059109807014465332e-01 5.949085950851440430e-01
-1.001925826072692871e+00 2.110026925802230835e-01 5.955777764320373535e-01
-1.005037069320678711e+00 2.160542160272598267e-01 5.962159037590026855e-01
-1.008146166801452637e+00 2.211024612188339233e-01 5.968536138534545898e-01
-1.011252522468566895e+00 2.261473685503005981e-01 5.974910855293273926e-01
-1.014357686042785645e+00 2.311885058879852295e-01 5.981278419494628906e-01
-1.017460942268371582e+00 2.362265437841415405e-01 5.987641215324401855e-01
-1.020551323890686035e+00 2.412678748369216919e-01 5.994056463241577148e-01
-1.023601412773132324e+00 2.463297545909881592e-01 6.000673174858093262e-01
-1.026649594306945801e+00 2.513885796070098877e-01 6.007285118103027344e-01
-1.029695630073547363e+00 2.564439177513122559e-01 6.013894081115722656e-01
-1.032739520072937012e+00 2.614953219890594482e-01 6.020495891571044922e-01
-1.036008000373840332e+00 2.664002478122711182e-01 6.025876998901367188e-01
-1.039482235908508301e+00 2.711716890335083008e-01 6.030142307281494141e-01
-1.042944312095642090e+00 2.759474813938140869e-01 6.034463644027709961e-01
-1.046373486518859863e+00 2.807409167289733887e-01 6.038950085639953613e-01
-1.049800634384155273e+00 2.855317890644073486e-01 6.043433547019958496e-01
-1.053226947784423828e+00 2.903208434581756592e-01 6.047917008399963379e-01
-1.056701064109802246e+00 2.950764596462249756e-01 6.052132248878479004e-01
-1.060250401496887207e+00 2.997821569442749023e-01 6.055930852890014648e-01
-1.063798069953918457e+00 3.044871091842651367e-01 6.059736609458923340e-01
-1.067344069480895996e+00 3.091894686222076416e-01 6.063542962074279785e-01
-1.070862412452697754e+00 3.139064311981201172e-01 6.067481040954589844e-01
-1.074376583099365234e+00 3.186225891113281250e-01 6.071434020996093750e-01
-1.078261613845825195e+00 3.231109380722045898e-01 6.073420047760009766e-01
-1.082194566726684570e+00 3.275684714317321777e-01 6.075145006179809570e-01
-1.086127042770385742e+00 3.320249319076538086e-01 6.076867580413818359e-01
-1.090059041976928711e+00 3.364807069301605225e-01 6.078591346740722656e-01
-1.093990087509155273e+00 3.409356474876403809e-01 6.080315113067626953e-01
-1.097912549972534180e+00 3.453946709632873535e-01 6.082077622413635254e-01
-1.101808071136474609e+00 3.498680591583251953e-01 6.083979010581970215e-01
-1.105702877044677734e+00 3.543409705162048340e-01 6.085879802703857422e-01
-1.109597682952880859e+00 3.588123619556427002e-01 6.087777614593505859e-01
-1.113490462303161621e+00 3.632833361625671387e-01 6.089677214622497559e-01
-1.117383122444152832e+00 3.677532970905303955e-01 6.091576814651489258e-01
-1.121376991271972656e+00 3.721622526645660400e-01 6.092942357063293457e-01
-1.125760436058044434e+00 3.763425052165985107e-01 6.092273592948913574e-01
-1.130136847496032715e+00 3.805264234542846680e-01 6.091638803482055664e-01
-1.134480118751525879e+00 3.847309350967407227e-01 6.091184020042419434e-01
-1.138823509216308594e+00 3.889357149600982666e-01 6.090728640556335449e-01
-1.143166899681091309e+00 3.931404054164886475e-01 6.090273857116699219e-01
-1.147510886192321777e+00 3.973453342914581299e-01 6.089814305305480957e-01
-1.151854872703552246e+00 4.015505909919738770e-01 6.089359521865844727e-01
-1.156198978424072266e+00 4.057556688785552979e-01 6.088900566101074219e-01
-1.160593867301940918e+00 4.099322855472564697e-01 6.088184118270874023e-01
-1.165014982223510742e+00 4.140948057174682617e-01 6.087334156036376953e-01
-1.169417500495910645e+00 4.182681441307067871e-01 6.086578369140625000e-01
-1.174282073974609375e+00 4.221810698509216309e-01 6.083450913429260254e-01
-1.179312825202941895e+00 4.260019361972808838e-01 6.079469323158264160e-01
-1.184345960617065430e+00 4.298247098922729492e-01 6.075492501258850098e-01
-1.189381361007690430e+00 4.336489140987396240e-01 6.071507930755615234e-01
-1.194418907165527344e+00 4.374743402004241943e-01 6.067523360252380371e-01
-1.199458718299865723e+00 4.413021206855773926e-01 6.063538193702697754e-01
-1.204499840736389160e+00 4.451315402984619141e-01 6.059550642967224121e-01
-1.209543347358703613e+00 4.489620029926300049e-01 6.055558919906616211e-01
-1.214525580406188965e+00 4.528295993804931641e-01 6.051896810531616211e-01
-1.219494223594665527e+00 4.567068815231323242e-01 6.048307418823242188e-01
-1.224463701248168945e+00 4.605863392353057861e-01 6.044722199440002441e-01
-1.229997515678405762e+00 4.641604721546173096e-01 6.038277149200439453e-01
-1.235685944557189941e+00 4.676548838615417480e-01 6.031062602996826172e-01
-1.241378784179687500e+00 4.711519181728363037e-01 6.023840904235839844e-01
-1.247075319290161133e+00 4.746516644954681396e-01 6.016613841056823730e-01
-1.252776980400085449e+00 4.781537950038909912e-01 6.009380221366882324e-01
-1.258464694023132324e+00 4.816685020923614502e-01 6.002236604690551758e-01
-1.264130711555480957e+00 4.851997494697570801e-01 5.995213985443115234e-01
-1.269801020622253418e+00 4.887332618236541748e-01 5.988187789916992188e-01
-1.275475382804870605e+00 4.922700822353363037e-01 5.981159806251525879e-01
-1.281154036521911621e+00 4.958088696002960205e-01 5.974123477935791016e-01
-1.287222862243652344e+00 4.991466999053955078e-01 5.965142846107482910e-01
-1.294265747070312500e+00 5.019778013229370117e-01 5.951289534568786621e-01
-1.301318049430847168e+00 5.048130154609680176e-01 5.937421917915344238e-01
-1.308353662490844727e+00 5.076671838760375977e-01 5.923669934272766113e-01
-1.315397620201110840e+00 5.105258822441101074e-01 5.909906029701232910e-01
-1.322450637817382812e+00 5.133894085884094238e-01 5.896126031875610352e-01
-1.329515099525451660e+00 5.162565708160400391e-01 5.882325768470764160e-01
-1.336589455604553223e+00 5.191280841827392578e-01 5.868506431579589844e-01
-1.343675136566162109e+00 5.220028162002563477e-01 5.854653120040893555e-01
-1.350920081138610840e+00 5.248055458068847656e-01 5.840046405792236328e-01
-1.359409213066101074e+00 5.269821286201477051e-01 5.819285511970520020e-01
-1.368447184562683105e+00 5.288931131362915039e-01 5.795848965644836426e-01
-1.377507686614990234e+00 5.308086276054382324e-01 5.772351622581481934e-01
-1.386589884757995605e+00 5.327287316322326660e-01 5.748795866966247559e-01
-1.395695567131042480e+00 5.346538424491882324e-01 5.725184679031372070e-01
-1.404822349548339844e+00 5.365835428237915039e-01 5.701515078544616699e-01
-1.413747549057006836e+00 5.386303663253784180e-01 5.678895711898803711e-01
-1.422658443450927734e+00 5.406996607780456543e-01 5.656396150588989258e-01
-1.435057640075683594e+00 5.410477519035339355e-01 5.616763830184936523e-01
-1.448319435119628906e+00 5.409943461418151855e-01 5.572974085807800293e-01
-1.461642861366271973e+00 5.409396886825561523e-01 5.528978109359741211e-01
-1.474909424781799316e+00 5.409431457519531250e-01 5.485361218452453613e-01
-1.487956047058105469e+00 5.410839319229125977e-01 5.442920327186584473e-01
-1.511142373085021973e+00 5.362886190414428711e-01 5.350897312164306641e-01
-1.544341683387756348e+00 5.266696214675903320e-01 5.210080742835998535e-01
-9.513579607009887695e-01 -6.455578655004501343e-02 5.147485733032226562e-01
-9.446268677711486816e-01 -5.181171000003814697e-02 5.211754441261291504e-01
-9.431868791580200195e-01 -4.302544146776199341e-02 5.245502591133117676e-01
-9.417325854301452637e-01 -3.425510600209236145e-02 5.279241204261779785e-01
-9.399945735931396484e-01 -2.530274540185928345e-02 5.314517617225646973e-01
-9.395340681076049805e-01 -1.731314137578010559e-02 5.342406034469604492e-01
-9.391541481018066406e-01 -9.403657168149948120e-03 5.369761586189270020e-01
-9.386569857597351074e-01 -1.429911935701966286e-03 5.397714376449584961e-01
-9.381613135337829590e-01 6.520336959511041641e-03 5.425587296485900879e-01
-9.383418560028076172e-01 1.396091189235448837e-02 5.449542999267578125e-01
-9.390273690223693848e-01 2.101876586675643921e-02 5.470574498176574707e-01
-9.401277303695678711e-01 2.776187658309936523e-02 5.489196777343750000e-01
-9.412565231323242188e-01 3.447037190198898315e-02 5.507607460021972656e-01
-9.423834085464477539e-01 4.116676375269889832e-02 5.525988340377807617e-01
-9.435076117515563965e-01 4.785017296671867371e-02 5.544331073760986328e-01
-9.445971250534057617e-01 5.454415455460548401e-02 5.562824606895446777e-01
-9.456809163093566895e-01 6.122823059558868408e-02 5.581309795379638672e-01
-9.467633366584777832e-01 6.789973378181457520e-02 5.599750876426696777e-01
-9.478428959846496582e-01 7.455809414386749268e-02 5.618162155151367188e-01
-9.494187235832214355e-01 8.085459470748901367e-02 5.633741021156311035e-01
-9.512008428573608398e-01 8.699534833431243896e-02 5.648124814033508301e-01
-9.531695246696472168e-01 9.299501031637191772e-02 5.661424994468688965e-01
-9.551355838775634766e-01 9.898575395345687866e-02 5.674704909324645996e-01
-9.570992588996887207e-01 1.049690693616867065e-01 5.687969326972961426e-01
-9.590601325035095215e-01 1.109438240528106689e-01 5.701217055320739746e-01
-9.610142707824707031e-01 1.169127970933914185e-01 5.714463591575622559e-01
-9.629139304161071777e-01 1.229088604450225830e-01 5.727984309196472168e-01
-9.648107290267944336e-01 1.288979947566986084e-01 5.741488337516784668e-01
-9.667055010795593262e-01 1.348775923252105713e-01 5.754967927932739258e-01
-9.685970544815063477e-01 1.408488005399703979e-01 5.768433809280395508e-01
-9.709265232086181641e-01 1.465135961771011353e-01 5.779439806938171387e-01
-9.733639359474182129e-01 1.520971208810806274e-01 5.789819359779357910e-01
-9.757463932037353516e-01 1.577091813087463379e-01 5.800478458404541016e-01
-9.781271815299987793e-01 1.633148640394210815e-01 5.811119079589843750e-01
-9.806182980537414551e-01 1.688387244939804077e-01 5.821128487586975098e-01
-9.831651449203491211e-01 1.743177473545074463e-01 5.830805897712707520e-01
-9.857091903686523438e-01 1.797912120819091797e-01 5.840470194816589355e-01
-9.882515668869018555e-01 1.852590888738632202e-01 5.850123167037963867e-01
-9.907723069190979004e-01 1.907335370779037476e-01 5.859874486923217773e-01
-9.932624697685241699e-01 1.962212622165679932e-01 5.869765281677246094e-01
-9.957491755485534668e-01 2.017035633325576782e-01 5.879651308059692383e-01
-9.984877705574035645e-01 2.070135921239852905e-01 5.888137817382812500e-01
-1.001495599746704102e+00 2.121416330337524414e-01 5.895132422447204590e-01
-1.004501223564147949e+00 2.172652930021286011e-01 5.902123451232910156e-01
-1.007504582405090332e+00 2.223862856626510620e-01 5.909110307693481445e-01
-1.010469794273376465e+00 2.275256067514419556e-01 5.916284322738647461e-01
-1.013412833213806152e+00 2.326747924089431763e-01 5.923567414283752441e-01
-1.016353249549865723e+00 2.378204315900802612e-01 5.930842757225036621e-01
-1.019291877746582031e+00 2.429611980915069580e-01 5.938109159469604492e-01
-1.022227764129638672e+00 2.480984032154083252e-01 5.945373773574829102e-01
-1.025264859199523926e+00 2.531659603118896484e-01 5.952075719833374023e-01
-1.028360724449157715e+00 2.581913173198699951e-01 5.958442091941833496e-01
-1.031410574913024902e+00 2.632412314414978027e-01 5.965043902397155762e-01
-1.034738183021545410e+00 2.681103646755218506e-01 5.970127582550048828e-01
-1.038214564323425293e+00 2.728830575942993164e-01 5.974408984184265137e-01
-1.041688442230224609e+00 2.776537239551544189e-01 5.978686213493347168e-01
-1.045161008834838867e+00 2.824217975139617920e-01 5.982959866523742676e-01
-1.048632264137268066e+00 2.871880233287811279e-01 5.987238287925720215e-01
-1.052101135253906250e+00 2.919524610042572021e-01 5.991511344909667969e-01
-1.055539727210998535e+00 2.967323362827301025e-01 5.995937585830688477e-01
-1.058964133262634277e+00 3.015179634094238281e-01 6.000429391860961914e-01
-1.062386512756347656e+00 3.063016235828399658e-01 6.004920005798339844e-01
-1.065807819366455078e+00 3.110828399658203125e-01 6.009408831596374512e-01
-1.069226980209350586e+00 3.158619403839111328e-01 6.013896465301513672e-01
-1.072644591331481934e+00 3.206383585929870605e-01 6.018379330635070801e-01
-1.076492905616760254e+00 3.251505494117736816e-01 6.020569801330566406e-01
-1.080338001251220703e+00 3.296623826026916504e-01 6.022772789001464844e-01
-1.084161639213562012e+00 3.341855406761169434e-01 6.025076508522033691e-01
-1.087984800338745117e+00 3.387076258659362793e-01 6.027387380599975586e-01
-1.091807126998901367e+00 3.432285785675048828e-01 6.029692292213439941e-01
-1.095717906951904297e+00 3.476950824260711670e-01 6.031526923179626465e-01
-1.099647283554077148e+00 3.521486520767211914e-01 6.033255457878112793e-01
-1.103577256202697754e+00 3.566008806228637695e-01 6.034978628158569336e-01
-1.107505917549133301e+00 3.610530197620391846e-01 6.036706566810607910e-01
-1.111418604850769043e+00 3.655128479003906250e-01 6.038511991500854492e-01
-1.115312457084655762e+00 3.699828386306762695e-01 6.040413975715637207e-01
-1.119337201118469238e+00 3.743740916252136230e-01 6.041622757911682129e-01
-1.123721837997436523e+00 3.785542547702789307e-01 6.040949225425720215e-01
-1.128105044364929199e+00 3.827353715896606445e-01 6.040279269218444824e-01
-1.132489919662475586e+00 3.869163691997528076e-01 6.039607524871826172e-01
-1.136874437332153320e+00 3.910978436470031738e-01 6.038938164710998535e-01
-1.141259670257568359e+00 3.952795565128326416e-01 6.038264632225036621e-01
-1.145645141601562500e+00 3.994616866111755371e-01 6.037597060203552246e-01
-1.149993658065795898e+00 4.036649763584136963e-01 6.037116050720214844e-01
-1.154338598251342773e+00 4.078713059425354004e-01 6.036660671234130859e-01
-1.158683061599731445e+00 4.120775759220123291e-01 6.036200523376464844e-01
-1.163029193878173828e+00 4.162838459014892578e-01 6.035741567611694336e-01
-1.167374491691589355e+00 4.204906225204467773e-01 6.035284996032714844e-01
-1.172251462936401367e+00 4.243972599506378174e-01 6.032079458236694336e-01
-1.177253603935241699e+00 4.282355010509490967e-01 6.028240919113159180e-01
-1.182257771492004395e+00 4.320752620697021484e-01 6.024399399757385254e-01
-1.187256217002868652e+00 4.359212219715118408e-01 6.020595431327819824e-01
-1.192229866981506348e+00 4.397832453250885010e-01 6.016927957534790039e-01
-1.197204351425170898e+00 4.436480104923248291e-01 6.013265848159790039e-01
-1.202181220054626465e+00 4.475134909152984619e-01 6.009596586227416992e-01
-1.207159638404846191e+00 4.513807594776153564e-01 6.005932092666625977e-01
-1.212140917778015137e+00 4.552491903305053711e-01 6.002259850502014160e-01
-1.217122554779052734e+00 4.591198861598968506e-01 5.998593568801879883e-01
-1.222107172012329102e+00 4.629911482334136963e-01 5.994918942451477051e-01
-1.227680206298828125e+00 4.665442705154418945e-01 5.988251566886901855e-01
-1.233349442481994629e+00 4.700498282909393311e-01 5.981113910675048828e-01
-1.238961577415466309e+00 4.735909998416900635e-01 5.974279642105102539e-01
-1.244577407836914062e+00 4.771348237991333008e-01 5.967440009117126465e-01
-1.250198245048522949e+00 4.806814193725585938e-01 5.960596799850463867e-01
-1.255822181701660156e+00 4.842305481433868408e-01 5.953750610351562500e-01
-1.261487364768981934e+00 4.877621829509735107e-01 5.946707725524902344e-01
-1.267200589179992676e+00 4.912733435630798340e-01 5.939442515373229980e-01
-1.272917747497558594e+00 4.947869777679443359e-01 5.932166576385498047e-01
-1.278629660606384277e+00 4.983088374137878418e-01 5.924944877624511719e-01
-1.284720182418823242e+00 5.016355514526367188e-01 5.915822386741638184e-01
-1.291760802268981934e+00 5.044684410095214844e-01 5.901935696601867676e-01
-1.298812031745910645e+00 5.073054432868957520e-01 5.888031721115112305e-01
-1.305873036384582520e+00 5.101470947265625000e-01 5.874105095863342285e-01
-1.312944889068603516e+00 5.129918456077575684e-01 5.860157012939453125e-01
-1.320026516914367676e+00 5.158416628837585449e-01 5.846189856529235840e-01
-1.327102422714233398e+00 5.187035202980041504e-01 5.832284092903137207e-01
-1.334175825119018555e+00 5.215764641761779785e-01 5.818423628807067871e-01
-1.341258049011230469e+00 5.244541764259338379e-01 5.804547667503356934e-01
-1.348351597785949707e+00 5.273355841636657715e-01 5.790647864341735840e-01
-1.356786251068115234e+00 5.295411348342895508e-01 5.770092010498046875e-01
-1.366087675094604492e+00 5.313193798065185547e-01 5.745264887809753418e-01
-1.375413298606872559e+00 5.331018567085266113e-01 5.720374584197998047e-01
-1.384436011314392090e+00 5.350546240806579590e-01 5.697043538093566895e-01
-1.393365859985351562e+00 5.370697379112243652e-01 5.674226284027099609e-01
-1.402316689491271973e+00 5.390900373458862305e-01 5.651352405548095703e-01
-1.411288261413574219e+00 5.411152839660644531e-01 5.628429651260375977e-01
-1.420282244682312012e+00 5.431448817253112793e-01 5.605449080467224121e-01
-1.432945251464843750e+00 5.433641672134399414e-01 5.564382076263427734e-01
-1.446491718292236328e+00 5.431731939315795898e-01 5.519049763679504395e-01
-1.459819912910461426e+00 5.431205034255981445e-01 5.474892854690551758e-01
-1.473209023475646973e+00 5.430676341056823730e-01 5.430536270141601562e-01
-1.486658692359924316e+00 5.430141687393188477e-01 5.385974049568176270e-01
-1.510567307472229004e+00 5.378739237785339355e-01 5.290111899375915527e-01
-1.542885780334472656e+00 5.286976099014282227e-01 5.153181552886962891e-01
-1.047632098197937012e+00 -1.194748878479003906e-01 4.578332006931304932e-01
-1.042308092117309570e+00 -1.076174676418304443e-01 4.635227918624877930e-01
-1.038698434829711914e+00 -9.706292301416397095e-02 4.682132005691528320e-01
-9.534823298454284668e-01 -2.683535777032375336e-02 5.196862816810607910e-01
-9.479574561119079590e-01 -1.513709221035242081e-02 5.253894925117492676e-01
-9.463971853256225586e-01 -6.366141606122255325e-03 5.288104414939880371e-01
-9.446566104888916016e-01 2.508931094780564308e-03 5.323261022567749023e-01
-9.431287646293640137e-01 1.120310276746749878e-02 5.357108712196350098e-01
-9.438062906265258789e-01 1.828184351325035095e-02 5.378305315971374512e-01
-9.445504546165466309e-01 2.529623359441757202e-02 5.399069190025329590e-01
-9.452923536300659180e-01 3.229649364948272705e-02 5.419794321060180664e-01
-9.460334777832031250e-01 3.928203135728836060e-02 5.440469980239868164e-01
-9.466851353645324707e-01 4.631444439291954041e-02 5.461598038673400879e-01
-9.473220109939575195e-01 5.334126949310302734e-02 5.482758879661560059e-01
-9.479582309722900391e-01 6.035330519080162048e-02 5.503870844841003418e-01
-9.489150047302246094e-01 6.712222099304199219e-02 5.523120164871215820e-01
-9.500077366828918457e-01 7.378068566322326660e-02 5.541546940803527832e-01
-9.514868259429931641e-01 8.015485852956771851e-02 5.557759404182434082e-01
-9.532837867736816406e-01 8.629449456930160522e-02 5.572137832641601562e-01
-9.550781250000000000e-01 9.242448210716247559e-02 5.586495995521545410e-01
-9.568700194358825684e-01 9.854541718959808350e-02 5.600829124450683594e-01
-9.586409330368041992e-01 1.046706140041351318e-01 5.615248680114746094e-01
-9.603491425514221191e-01 1.108280941843986511e-01 5.629981756210327148e-01
-9.620540738105773926e-01 1.169759854674339294e-01 5.644695162773132324e-01
-9.637563228607177734e-01 1.231151670217514038e-01 5.659385919570922852e-01
-9.654563069343566895e-01 1.292451173067092896e-01 5.674056410789489746e-01
-9.673322439193725586e-01 1.352433115243911743e-01 5.687707066535949707e-01
-9.692438840866088867e-01 1.412070840597152710e-01 5.701125264167785645e-01
-9.715895056724548340e-01 1.468666642904281616e-01 5.712097287178039551e-01
-9.740293622016906738e-01 1.524544954299926758e-01 5.722524523735046387e-01
-9.764658212661743164e-01 1.580366343259811401e-01 5.732941031455993652e-01
-9.788999557495117188e-01 1.636127382516860962e-01 5.743345022201538086e-01
-9.813318848609924316e-01 1.691824495792388916e-01 5.753732919692993164e-01
-9.837439060211181641e-01 1.747574806213378906e-01 5.764207839965820312e-01
-9.861179590225219727e-01 1.803497821092605591e-01 5.774865150451660156e-01
-9.884898066520690918e-01 1.859362870454788208e-01 5.785508751869201660e-01
-9.908583760261535645e-01 1.915167570114135742e-01 5.796146988868713379e-01
-9.932256340980529785e-01 1.970900893211364746e-01 5.806760191917419434e-01
-9.955894351005554199e-01 2.026582807302474976e-01 5.817375183105468750e-01
-9.982549548149108887e-01 2.080203443765640259e-01 5.826303362846374512e-01
-1.001112341880798340e+00 2.132508158683776855e-01 5.834163427352905273e-01
-1.004119277000427246e+00 2.183774560689926147e-01 5.841179490089416504e-01
-1.007125258445739746e+00 2.235004007816314697e-01 5.848190188407897949e-01
-1.010128021240234375e+00 2.286194860935211182e-01 5.855197906494140625e-01
-1.013129353523254395e+00 2.337352335453033447e-01 5.862200260162353516e-01
-1.016128063201904297e+00 2.388471812009811401e-01 5.869198441505432129e-01
-1.019112110137939453e+00 2.439631521701812744e-01 5.876257419586181641e-01
-1.022049665451049805e+00 2.491033971309661865e-01 5.883550047874450684e-01
-1.024985790252685547e+00 2.542395889759063721e-01 5.890836715698242188e-01
-1.027919769287109375e+00 2.593718469142913818e-01 5.898115634918212891e-01
-1.030851006507873535e+00 2.644999921321868896e-01 5.905392169952392578e-01
-1.034140825271606445e+00 2.693973481655120850e-01 5.910714864730834961e-01
-1.037525534629821777e+00 2.742309570312500000e-01 5.915511250495910645e-01
-1.040892720222473145e+00 2.790715694427490234e-01 5.920392274856567383e-01
-1.044230937957763672e+00 2.839270234107971191e-01 5.925413370132446289e-01
-1.047567129135131836e+00 2.887800931930541992e-01 5.930438041687011719e-01
-1.050902485847473145e+00 2.936300337314605713e-01 5.935452580451965332e-01
-1.054307579994201660e+00 2.984329760074615479e-01 5.940082073211669922e-01
-1.057775855064392090e+00 3.031935691833496094e-01 5.944361686706542969e-01
-1.061241745948791504e+00 3.079530000686645508e-01 5.948647260665893555e-01
-1.064700722694396973e+00 3.127131462097167969e-01 5.952954888343811035e-01
-1.068121194839477539e+00 3.174935877323150635e-01 5.957458615303039551e-01
-1.071588158607482910e+00 3.222425878047943115e-01 5.961701869964599609e-01
-1.075442910194396973e+00 3.267531394958496094e-01 5.963872671127319336e-01
-1.079296708106994629e+00 3.312625288963317871e-01 5.966047048568725586e-01
-1.083149313926696777e+00 3.357705771923065186e-01 5.968214273452758789e-01
-1.087001442909240723e+00 3.402783572673797607e-01 5.970387458801269531e-01
-1.090852737426757812e+00 3.447842895984649658e-01 5.972554087638854980e-01
-1.094689965248107910e+00 3.492973446846008301e-01 5.974790453910827637e-01
-1.098511457443237305e+00 3.538180589675903320e-01 5.977106094360351562e-01
-1.102332472801208496e+00 3.583377301692962646e-01 5.979419946670532227e-01
-1.106153130531311035e+00 3.628562390804290771e-01 5.981732606887817383e-01
-1.109971880912780762e+00 3.673729896545410156e-01 5.984043478965759277e-01
-1.113790392875671387e+00 3.718890547752380371e-01 5.986351966857910156e-01
-1.117798447608947754e+00 3.762920796871185303e-01 5.987662076950073242e-01
-1.122145295143127441e+00 3.804963231086730957e-01 5.987188816070556641e-01
-1.126477837562561035e+00 3.847086131572723389e-01 5.986788868904113770e-01
-1.130792737007141113e+00 3.889317214488983154e-01 5.986485481262207031e-01
-1.135107994079589844e+00 3.931551575660705566e-01 5.986180901527404785e-01
-1.139423608779907227e+00 3.973781168460845947e-01 5.985876917839050293e-01
-1.143738508224487305e+00 4.016019105911254883e-01 5.985573530197143555e-01
-1.148054599761962891e+00 4.058248996734619141e-01 5.985265374183654785e-01
-1.152380704879760742e+00 4.100431203842163086e-01 5.984907746315002441e-01
-1.156767487525939941e+00 4.142257571220397949e-01 5.984232425689697266e-01
-1.161155104637145996e+00 4.184098541736602783e-01 5.983557701110839844e-01
-1.165515542030334473e+00 4.226090908050537109e-01 5.983022451400756836e-01
-1.170443534851074219e+00 4.264878928661346436e-01 5.979549288749694824e-01
-1.175446152687072754e+00 4.303275644779205322e-01 5.975700616836547852e-01
-1.180450916290283203e+00 4.341683983802795410e-01 5.971845984458923340e-01
-1.185457944869995117e+00 4.380108714103698730e-01 5.967988967895507812e-01
-1.190466403961181641e+00 4.418548047542572021e-01 5.964131951332092285e-01
-1.195477604866027832e+00 4.457006156444549561e-01 5.960276126861572266e-01
-1.200490474700927734e+00 4.495478570461273193e-01 5.956413149833679199e-01
-1.205505013465881348e+00 4.533964991569519043e-01 5.952553153038024902e-01
-1.210486412048339844e+00 4.572666287422180176e-01 5.948873758316040039e-01
-1.215469837188720703e+00 4.611377120018005371e-01 5.945188999176025391e-01
-1.220455169677734375e+00 4.650105834007263184e-01 5.941505432128906250e-01
-1.226044058799743652e+00 4.685569405555725098e-01 5.934742093086242676e-01
-1.231762528419494629e+00 4.720374643802642822e-01 5.927330851554870605e-01
-1.237486720085144043e+00 4.755198955535888672e-01 5.919908285140991211e-01
-1.243214368820190430e+00 4.790058135986328125e-01 5.912485718727111816e-01
-1.248947024345397949e+00 4.824941456317901611e-01 5.905055403709411621e-01
-1.254638552665710449e+00 4.860093891620635986e-01 5.897846221923828125e-01
-1.260268330574035645e+00 4.895631074905395508e-01 5.890972018241882324e-01
-1.265902757644653320e+00 4.931185245513916016e-01 5.884085893630981445e-01
-1.271540522575378418e+00 4.966771304607391357e-01 5.877200961112976074e-01
-1.277182698249816895e+00 5.002381205558776855e-01 5.870312452316284180e-01
-1.283345222473144531e+00 5.035292506217956543e-01 5.860803127288818359e-01
-1.290230154991149902e+00 5.064470767974853516e-01 5.847665667533874512e-01
-1.297125339508056641e+00 5.093681812286376953e-01 5.834507346153259277e-01
-1.304038643836975098e+00 5.122887492179870605e-01 5.821287035942077637e-01
-1.310963511466979980e+00 5.152124762535095215e-01 5.808036327362060547e-01
-1.317898869514465332e+00 5.181397199630737305e-01 5.794764161109924316e-01
-1.324843049049377441e+00 5.210714340209960938e-01 5.781477689743041992e-01
-1.331797361373901367e+00 5.240071415901184082e-01 5.768169164657592773e-01
-1.338816881179809570e+00 5.269181132316589355e-01 5.754563212394714355e-01
-1.345934271812438965e+00 5.297883749008178711e-01 5.740500688552856445e-01
-1.354120135307312012e+00 5.321221947669982910e-01 5.721122026443481445e-01
-1.363417863845825195e+00 5.339033007621765137e-01 5.696230530738830566e-01
-1.372739553451538086e+00 5.356895327568054199e-01 5.671278238296508789e-01
-1.382086038589477539e+00 5.374794006347656250e-01 5.646256208419799805e-01
-1.391456365585327148e+00 5.392746329307556152e-01 5.621173381805419922e-01
-1.400850892066955566e+00 5.410744547843933105e-01 5.596020221710205078e-01
-1.410086989402770996e+00 5.429705381393432617e-01 5.571717023849487305e-01
-1.419081449508666992e+00 5.450034141540527344e-01 5.548664927482604980e-01
-1.432065963745117188e+00 5.450677871704101562e-01 5.505880713462829590e-01
-1.446031928062438965e+00 5.446745753288269043e-01 5.458332300186157227e-01
-1.460067391395568848e+00 5.442789793014526367e-01 5.410545468330383301e-01
-1.474171757698059082e+00 5.438814759254455566e-01 5.362524986267089844e-01
-1.487745642662048340e+00 5.437761545181274414e-01 5.317229628562927246e-01
-1.516404986381530762e+00 5.363253951072692871e-01 5.197653770446777344e-01
-1.549162626266479492e+00 5.269574522972106934e-01 5.058159828186035156e-01
-1.051245331764221191e+00 -1.214516386389732361e-01 4.489418268203735352e-01
-1.042582631111145020e+00 -1.071247160434722900e-01 4.565809071063995361e-01
-1.038011908531188965e+00 -9.586010873317718506e-02 4.618425965309143066e-01
-1.034468173980712891e+00 -8.538751304149627686e-02 4.664999842643737793e-01
-1.032695055007934570e+00 -7.624191045761108398e-02 4.701278805732727051e-01
-1.031010985374450684e+00 -6.718857586383819580e-02 4.736960232257843018e-01
-1.030329346656799316e+00 -5.888991057872772217e-02 4.766798019409179688e-01
-1.029920935630798340e+00 -5.081091821193695068e-02 4.794998466968536377e-01
-9.571527242660522461e-01 9.375699795782566071e-03 5.236779451370239258e-01
-9.532536864280700684e-01 1.975951343774795532e-02 5.284240245819091797e-01
-9.532166719436645508e-01 2.734126336872577667e-02 5.309556126594543457e-01
-9.531790614128112793e-01 3.490409255027770996e-02 5.334807634353637695e-01
-9.530242681503295898e-01 4.253110289573669434e-02 5.360665917396545410e-01
-9.527313709259033203e-01 5.023629218339920044e-02 5.387243032455444336e-01
-9.529613256454467773e-01 5.755120888352394104e-02 5.410786271095275879e-01
-9.536815881729125977e-01 6.450294703245162964e-02 5.431491732597351074e-01
-9.543106555938720703e-01 7.150246202945709229e-02 5.452657341957092285e-01
-9.551948308944702148e-01 7.830738276243209839e-02 5.472332239151000977e-01
-9.566742777824401855e-01 8.468181639909744263e-02 5.488595962524414062e-01
-9.581515192985534668e-01 9.104517847299575806e-02 5.504832267761230469e-01
-9.595766067504882812e-01 9.743221104145050049e-02 5.521318912506103516e-01
-9.609710574150085449e-01 1.038282886147499084e-01 5.537936687469482422e-01
-9.625238776206970215e-01 1.101022809743881226e-01 5.553626418113708496e-01
-9.643088579177856445e-01 1.162048876285552979e-01 5.567973852157592773e-01
-9.660913348197937012e-01 1.222981959581375122e-01 5.582299232482910156e-01
-9.678329229354858398e-01 1.284092217683792114e-01 5.596814751625061035e-01
-9.695307016372680664e-01 1.345387101173400879e-01 5.611541867256164551e-01
-9.712256789207458496e-01 1.406586915254592896e-01 5.626245141029357910e-01
-9.733861088752746582e-01 1.464531570672988892e-01 5.638319253921508789e-01
-9.756695032119750977e-01 1.521553844213485718e-01 5.649679899215698242e-01
-9.779504537582397461e-01 1.578500121831893921e-01 5.661025047302246094e-01
-9.801751971244812012e-01 1.635743230581283569e-01 5.672652125358581543e-01
-9.823802113533020020e-01 1.693041175603866577e-01 5.684365034103393555e-01
-9.845821857452392578e-01 1.750254929065704346e-01 5.696057677268981934e-01
-9.868627190589904785e-01 1.806871145963668823e-01 5.707291960716247559e-01
-9.892885684967041016e-01 1.862436085939407349e-01 5.717694163322448730e-01
-9.917110204696655273e-01 1.917947828769683838e-01 5.728089809417724609e-01
-9.940977096557617188e-01 1.973615139722824097e-01 5.738658905029296875e-01
-9.964635968208312988e-01 2.029343396425247192e-01 5.749313235282897949e-01
-9.991638064384460449e-01 2.082803845405578613e-01 5.758104920387268066e-01
-1.002052545547485352e+00 2.134967446327209473e-01 5.765841007232666016e-01
-1.004939556121826172e+00 2.187085449695587158e-01 5.773565173149108887e-01
-1.007823586463928223e+00 2.239162325859069824e-01 5.781283378601074219e-01
-1.010690927505493164e+00 2.291298955678939819e-01 5.789080262184143066e-01
-1.013506412506103516e+00 2.343710064888000488e-01 5.797141790390014648e-01
-1.016319632530212402e+00 2.396070510149002075e-01 5.805190801620483398e-01
-1.019130349159240723e+00 2.448391169309616089e-01 5.813236832618713379e-01
-1.021939158439636230e+00 2.500667572021484375e-01 5.821275115013122559e-01
-1.024744510650634766e+00 2.552903592586517334e-01 5.829311609268188477e-01
-1.027734041213989258e+00 2.603914141654968262e-01 5.836325883865356445e-01
-1.030678629875183105e+00 2.655152380466461182e-01 5.843564867973327637e-01
-1.034030318260192871e+00 2.703780233860015869e-01 5.848588943481445312e-01
-1.037417054176330566e+00 2.752141356468200684e-01 5.853404402732849121e-01
-1.040802836418151855e+00 2.800480425357818604e-01 5.858216881752014160e-01
-1.044186472892761230e+00 2.848792970180511475e-01 5.863026380538940430e-01
-1.047568202018737793e+00 2.897087335586547852e-01 5.867834091186523438e-01
-1.050949096679687500e+00 2.945345044136047363e-01 5.872636437416076660e-01
-1.054296851158142090e+00 2.993780672550201416e-01 5.877608060836791992e-01
-1.057630658149719238e+00 3.042263686656951904e-01 5.882639884948730469e-01
-1.060962080955505371e+00 3.090722262859344482e-01 5.887672305107116699e-01
-1.064292669296264648e+00 3.139154911041259766e-01 5.892698168754577637e-01
-1.067621231079101562e+00 3.187559247016906738e-01 5.897722244262695312e-01
-1.071055889129638672e+00 3.235283792018890381e-01 5.902167558670043945e-01
-1.074833869934082031e+00 3.280886113643646240e-01 5.904768109321594238e-01
-1.078594684600830078e+00 3.326579034328460693e-01 5.907452702522277832e-01
-1.082331895828247070e+00 3.372393846511840820e-01 5.910259485244750977e-01
-1.086067438125610352e+00 3.418199419975280762e-01 5.913066267967224121e-01
-1.089807868003845215e+00 3.463952839374542236e-01 5.915842056274414062e-01
-1.093659520149230957e+00 3.509022891521453857e-01 5.918018817901611328e-01
-1.097510933876037598e+00 3.554076552391052246e-01 5.920192003250122070e-01
-1.101360797882080078e+00 3.599124252796173096e-01 5.922365188598632812e-01
-1.105210661888122559e+00 3.644161820411682129e-01 5.924539566040039062e-01
-1.109039783477783203e+00 3.689303696155548096e-01 5.926814675331115723e-01
-1.112859368324279785e+00 3.734484314918518066e-01 5.929138064384460449e-01
-1.116935968399047852e+00 3.778138458728790283e-01 5.930098295211791992e-01
-1.121284961700439453e+00 3.820195496082305908e-01 5.929623246192932129e-01
-1.125633001327514648e+00 3.862260282039642334e-01 5.929148197174072266e-01
-1.129981994628906250e+00 3.904322683811187744e-01 5.928675532341003418e-01
-1.134330868721008301e+00 3.946391046047210693e-01 5.928205847740173340e-01
-1.138680219650268555e+00 3.988459110260009766e-01 5.927730798721313477e-01
-1.143024444580078125e+00 4.030556678771972656e-01 5.927283167839050293e-01
-1.147342801094055176e+00 4.072813987731933594e-01 5.926978588104248047e-01
-1.151660203933715820e+00 4.115070998668670654e-01 5.926673412322998047e-01
-1.155978322029113770e+00 4.157329797744750977e-01 5.926365256309509277e-01
-1.160296201705932617e+00 4.199592173099517822e-01 5.926060080528259277e-01
-1.164628982543945312e+00 4.241770803928375244e-01 5.925680398941040039e-01
-1.169594049453735352e+00 4.280382692813873291e-01 5.922009944915771484e-01
-1.174559473991394043e+00 4.319015443325042725e-01 5.918347239494323730e-01
-1.179528474807739258e+00 4.357658922672271729e-01 5.914675593376159668e-01
-1.184483647346496582e+00 4.396403431892395020e-01 5.911087393760681152e-01
-1.189425110816955566e+00 4.435243308544158936e-01 5.907572507858276367e-01
-1.194367527961730957e+00 4.474110305309295654e-01 5.904064178466796875e-01
-1.199312090873718262e+00 4.512985944747924805e-01 5.900552868843078613e-01
-1.204258084297180176e+00 4.551882743835449219e-01 5.897042751312255859e-01
-1.209206342697143555e+00 4.590784907341003418e-01 5.893524885177612305e-01
-1.214156508445739746e+00 4.629703462123870850e-01 5.890009403228759766e-01
-1.219107866287231445e+00 4.668639004230499268e-01 5.886496901512145996e-01
-1.224753975868225098e+00 4.703814387321472168e-01 5.879421830177307129e-01
-1.230419874191284180e+00 4.738930165767669678e-01 5.872264504432678223e-01
-1.236070632934570312e+00 4.774178266525268555e-01 5.865203142166137695e-01
-1.241725683212280273e+00 4.809453785419464111e-01 5.858132839202880859e-01
-1.247384309768676758e+00 4.844754040241241455e-01 5.851057767868041992e-01
-1.253049850463867188e+00 4.880071282386779785e-01 5.843968391418457031e-01
-1.258792519569396973e+00 4.915021061897277832e-01 5.836497545242309570e-01
-1.264538645744323730e+00 4.950002431869506836e-01 5.829030871391296387e-01
-1.270289182662963867e+00 4.985012412071228027e-01 5.821554064750671387e-01
-1.276003956794738770e+00 5.020262598991394043e-01 5.814280509948730469e-01
-1.282346963882446289e+00 5.052251815795898438e-01 5.803830623626708984e-01
-1.289234161376953125e+00 5.081449747085571289e-01 5.790647268295288086e-01
-1.296131014823913574e+00 5.110685229301452637e-01 5.777448415756225586e-01
-1.303037166595458984e+00 5.139966607093811035e-01 5.764229297637939453e-01
-1.309952974319458008e+00 5.169281363487243652e-01 5.750992298126220703e-01
-1.316878199577331543e+00 5.198638439178466797e-01 5.737732052803039551e-01
-1.323819756507873535e+00 5.228005051612854004e-01 5.724427103996276855e-01
-1.330775737762451172e+00 5.257383584976196289e-01 5.711072683334350586e-01
-1.337741494178771973e+00 5.286802649497985840e-01 5.697702765464782715e-01
-1.344717264175415039e+00 5.316264033317565918e-01 5.684314966201782227e-01
-1.353129148483276367e+00 5.338483452796936035e-01 5.663746595382690430e-01
-1.362747311592102051e+00 5.354702472686767578e-01 5.637176036834716797e-01
-1.372394323348999023e+00 5.370962023735046387e-01 5.610522031784057617e-01
-1.381709933280944824e+00 5.389075279235839844e-01 5.585588812828063965e-01
-1.390959262847900391e+00 5.407687425613403320e-01 5.561038851737976074e-01
-1.400232195854187012e+00 5.426348447799682617e-01 5.536428689956665039e-01
-1.409528374671936035e+00 5.445054769515991211e-01 5.511756539344787598e-01
-1.418848514556884766e+00 5.463805198669433594e-01 5.487016439437866211e-01
-1.432927966117858887e+00 5.459074378013610840e-01 5.438660383224487305e-01
-1.447056174278259277e+00 5.454427003860473633e-01 5.390171408653259277e-01
-1.461188912391662598e+00 5.450083613395690918e-01 5.341770648956298828e-01
-1.475390076637268066e+00 5.445720553398132324e-01 5.293132662773132324e-01
-1.491074442863464355e+00 5.434414148330688477e-01 5.237256288528442383e-01
-1.525536298751831055e+00 5.331732034683227539e-01 5.088632106781005859e-01
-1.556930184364318848e+00 5.244980454444885254e-01 4.955489039421081543e-01
-1.045047044754028320e+00 -1.082415878772735596e-01 4.483608901500701904e-01
-1.037821173667907715e+00 -9.501957893371582031e-02 4.551785886287689209e-01
-1.033742666244506836e+00 -8.415219932794570923e-02 4.601617753505706787e-01
-1.030448079109191895e+00 -7.389380782842636108e-02 4.646804928779602051e-01
-1.028761029243469238e+00 -6.483944505453109741e-02 4.682618975639343262e-01
-1.027086257934570312e+00 -5.582102015614509583e-02 4.718272387981414795e-01
-1.026796698570251465e+00 -4.783065989613533020e-02 4.745879769325256348e-01
-1.027013063430786133e+00 -4.022646322846412659e-02 4.770515859127044678e-01
-1.027284383773803711e+00 -3.267966955900192261e-02 4.794771671295166016e-01
-1.028064966201782227e+00 -2.551639638841152191e-02 4.816054105758666992e-01
-1.029043555259704590e+00 -1.851100102066993713e-02 4.836147427558898926e-01
-1.030170440673828125e+00 -1.162571739405393600e-02 4.855347275733947754e-01
-1.031450152397155762e+00 -4.863731097429990768e-03 4.873625636100769043e-01
-9.700124263763427734e-01 4.623394832015037537e-02 5.248844027519226074e-01
-9.654065966606140137e-01 5.698153749108314514e-02 5.300036072731018066e-01
-9.631499052047729492e-01 6.603914499282836914e-02 5.337761044502258301e-01
-9.628633856773376465e-01 7.368822395801544189e-02 5.364220142364501953e-01
-9.634706377983093262e-01 8.069263398647308350e-02 5.385547876358032227e-01
-9.642989635467529297e-01 8.752698451280593872e-02 5.405576229095458984e-01
-9.650167226791381836e-01 9.442347288131713867e-02 5.426173210144042969e-01
-9.659249186515808105e-01 1.011723503470420837e-01 5.445649027824401855e-01
-9.673933982849121094e-01 1.075197756290435791e-01 5.461915731430053711e-01
-9.688597321510314941e-01 1.138563156127929688e-01 5.478155016899108887e-01
-9.703051447868347168e-01 1.201954260468482971e-01 5.494472980499267578e-01
-9.716885089874267578e-01 1.265648454427719116e-01 5.511097311973571777e-01
-9.730699658393859863e-01 1.329227238893508911e-01 5.527686476707458496e-01
-9.744482040405273438e-01 1.392700970172882080e-01 5.544257760047912598e-01
-9.762803316116333008e-01 1.452980935573577881e-01 5.558245778083801270e-01
-9.782660603523254395e-01 1.512118577957153320e-01 5.571344494819641113e-01
-9.803043007850646973e-01 1.570804268121719360e-01 5.584115982055664062e-01
-9.825847148895263672e-01 1.627773195505142212e-01 5.595507621765136719e-01
-9.848611950874328613e-01 1.684680581092834473e-01 5.606889128684997559e-01
-9.871358275413513184e-01 1.741511374711990356e-01 5.618254542350769043e-01
-9.894078969955444336e-01 1.798279583454132080e-01 5.629606842994689941e-01
-9.916305541992187500e-01 1.855291128158569336e-01 5.641204714775085449e-01
-9.938264489173889160e-01 1.912395805120468140e-01 5.652921199798583984e-01
-9.960196018218994141e-01 1.969425678253173828e-01 5.664626955986022949e-01
-9.982099533081054688e-01 2.026393562555313110e-01 5.676316618919372559e-01
-1.000759840011596680e+00 2.080923020839691162e-01 5.685996413230895996e-01
-1.003480315208435059e+00 2.134263664484024048e-01 5.694713592529296875e-01
-1.006154060363769531e+00 2.187842428684234619e-01 5.703659057617187500e-01
-1.008793711662292480e+00 2.241577208042144775e-01 5.712775588035583496e-01
-1.011627435684204102e+00 2.293995320796966553e-01 5.720806717872619629e-01
-1.014509320259094238e+00 2.346042841672897339e-01 5.728549361228942871e-01
-1.017389178276062012e+00 2.398038208484649658e-01 5.736283063888549805e-01
-1.020266771316528320e+00 2.450004070997238159e-01 5.744014978408813477e-01
-1.023107051849365234e+00 2.502146065235137939e-01 5.751932859420776367e-01
-1.025915503501892090e+00 2.554431855678558350e-01 5.759999752044677734e-01
-1.028721570968627930e+00 2.606672644615173340e-01 5.768063068389892578e-01
-1.031546235084533691e+00 2.658741772174835205e-01 5.776004791259765625e-01
-1.034829735755920410e+00 2.707859873771667480e-01 5.781434774398803711e-01
-1.038111090660095215e+00 2.756945192813873291e-01 5.786859393119812012e-01
-1.041390538215637207e+00 2.806011438369750977e-01 5.792284607887268066e-01
